# .PCD v0.7 - Point Cloud Data file format
VERSION 0.7
FIELDS x y z rgba
SIZE 4 4 4 4
TYPE F F F F
COUNT 1 1 1 1
WIDTH 1221
HEIGHT 1
VIEWPOINT 0 0 0 1 0 0 0
POINTS 1221
DATA ascii
-0.989966 0.836950 1.926226 189 190 182
-0.994093 0.844932 1.944596 185 187 174
-0.998081 0.852880 1.962888 188 190 179
-1.001915 0.860783 1.981076 186 188 175
-0.999627 0.863482 1.987289 189 191 177
-0.997103 0.866007 1.993099 185 187 174
-0.990354 0.864869 1.990481 188 192 178
-1.001083 0.623084 1.425054 197 200 193
-1.005637 0.628363 1.437127 194 197 190
-1.014402 0.636324 1.455337 0 0 0
-1.010425 0.636324 1.455337 191 196 189
-0.992856 0.627730 1.435681 193 196 189
-0.977913 0.620736 1.419683 190 191 183
-0.987838 0.629533 1.439803 0 0 0
-1.003290 0.641937 1.468173 0 0 0
-1.000311 0.642600 1.469690 189 190 182
-0.996295 0.642600 1.469690 191 193 182
-0.999894 0.647532 1.480970 192 194 183
-1.004391 0.653087 1.493675 189 192 181
-1.008627 0.658518 1.506095 180 183 172
-1.003837 0.658075 1.505083 123 126 117
-0.999077 0.657650 1.504110 179 180 172
-1.003754 0.663458 1.517393 190 191 185
-0.999607 0.663458 1.517393 193 194 188
-0.999437 0.666108 1.523454 191 192 186
-1.005958 0.673258 1.539807 0 0 0
-1.012632 0.680572 1.556534 187 192 185
-1.002821 0.676820 1.547955 190 195 188
-0.995549 0.674758 1.543239 194 199 192
-0.987373 0.672064 1.537076 193 198 191
-0.989422 0.676335 1.546846 190 193 186
-0.985195 0.676335 1.546846 189 192 185
-0.998738 0.688587 1.574865 0 0 0
-0.988648 0.684580 1.565702 192 195 188
-0.995523 0.692337 1.583443 193 196 189
-1.020646 0.712907 1.630488 0 0 0
-0.996315 0.698963 1.598598 191 194 187
-0.994124 0.700498 1.602107 193 198 191
-0.995352 0.704465 1.611181 189 194 187
-0.990950 0.704465 1.611181 189 194 187
-0.996990 0.711922 1.628235 0 0 0
-0.992826 0.712127 1.628704 191 196 189
-0.995577 0.717315 1.640571 193 198 191
-0.992107 0.718049 1.642249 194 196 191
-0.996714 0.724661 1.657371 193 195 190
-0.998694 0.729415 1.668244 191 193 188
-0.996240 0.730959 1.671774 193 195 190
-0.998486 0.735982 1.683262 194 196 191
-0.993886 0.735982 1.683262 195 197 192
-0.990394 0.736805 1.685146 193 195 190
-0.989987 0.739943 1.692322 192 194 189
-0.992026 0.744947 1.703766 191 196 190
-0.997097 0.752285 1.720551 194 199 193
-1.004185 0.761222 1.740991 0 0 0
-1.005944 0.766185 1.752341 194 197 190
-1.003075 0.767654 1.755701 193 196 189
-1.000110 0.769064 1.758924 191 196 189
-0.995912 0.769534 1.760000 192 197 190
-0.998085 0.774955 1.772399 191 196 189
-0.993242 0.774955 1.772399 193 198 191
-0.996220 0.781087 1.786423 193 198 191
-0.990117 0.780125 1.784222 175 180 173
-0.997951 0.790188 1.807239 0 0 0
-0.995954 0.792529 1.812592 191 196 190
-0.999234 0.799113 1.827650 191 196 190
-0.998039 0.802166 1.834634 191 196 190
-1.000835 0.808475 1.849062 191 196 189
-1.002233 0.813712 1.861040 192 197 190
-0.987535 0.805868 1.843100 190 195 188
-0.991119 0.812939 1.859271 188 193 186
-0.995215 0.820504 1.876573 189 192 185
-1.006859 0.834403 1.908363 0 0 0
-1.009439 0.840897 1.923215 193 196 189
-1.004616 0.841259 1.924042 190 193 186
-0.999358 0.841259 1.924042 194 197 188
-0.991272 0.838865 1.918567 190 193 184
-0.990456 0.842630 1.927179 188 189 181
-0.995287 0.851267 1.946932 192 194 181
-0.998850 0.858905 1.964401 185 188 177
-0.999048 0.863717 1.975406 189 193 178
-1.000163 0.869379 1.988355 186 190 175
-1.003664 0.628595 1.428729 195 198 191
-1.005637 0.632290 1.437127 196 199 192
-0.996068 0.628728 1.429033 193 198 191
-0.985563 0.624546 1.419526 191 194 185
-0.981684 0.624546 1.419526 194 197 188
-0.978335 0.624885 1.420297 189 191 180
-0.974033 0.624615 1.419683 191 191 179
-0.981144 0.631691 1.435766 0 0 0
-0.995549 0.643538 1.462694 187 187 175
-0.997395 0.647330 1.471313 189 189 177
-0.993374 0.647330 1.471313 187 189 178
-0.990464 0.648057 1.472964 186 189 178
-0.994253 0.653190 1.484632 152 155 144
-1.003837 0.662188 1.505083 0 0 0
-1.000049 0.662404 1.505573 131 134 127
-0.994694 0.661578 1.503698 163 164 158
-1.002996 0.669867 1.522537 189 190 184
-0.998836 0.669867 1.522537 192 193 187
-1.002106 0.674871 1.533911 193 194 188
-0.998100 0.674996 1.534195 191 194 187
-0.995354 0.675979 1.536428 192 197 190
-0.984852 0.671680 1.526658 192 197 190
-0.989409 0.677658 1.540246 191 196 189
-0.995129 0.684488 1.555767 191 194 187
-0.990878 0.684488 1.555767 190 193 186
-0.987693 0.685228 1.557450 191 194 187
-0.994631 0.693027 1.575177 194 199 192
-0.995523 0.696664 1.583443 192 197 190
-0.998731 0.701959 1.595479 190 195 188
-1.001409 0.706928 1.606771 192 195 188
-0.998443 0.707937 1.609066 188 193 186
-0.991491 0.706118 1.604930 190 195 188
-0.987105 0.706118 1.604930 190 195 188
-0.990632 0.711803 1.617853 189 194 187
-0.999286 0.721240 1.639301 190 195 188
-0.995634 0.721840 1.640665 194 197 190
-0.990978 0.721714 1.640379 194 197 190
-0.985945 0.721311 1.639464 194 196 191
-0.993101 0.729863 1.658901 0 0 0
-0.993704 0.733655 1.667520 191 196 190
-0.997727 0.740018 1.681983 192 197 191
-0.994999 0.741410 1.685146 191 196 190
-0.990394 0.741410 1.685146 191 196 190
-0.987885 0.742987 1.688729 191 196 190
-0.991709 0.749363 1.703222 191 196 189
-0.993903 0.754562 1.715039 191 196 189
-0.997851 0.761148 1.730009 194 197 190
-1.003677 0.769237 1.748393 194 197 190
-1.007127 0.775572 1.762793 192 195 188
-1.003195 0.776257 1.764349 190 195 188
-1.000351 0.777794 1.767844 191 196 189
-0.998186 0.779877 1.772577 192 197 190
-0.990856 0.777925 1.768141 191 196 189
-0.986024 0.777925 1.768141 187 192 185
-0.987863 0.783213 1.780160 183 188 181
-0.994435 0.792326 1.800872 0 0 0
-0.997131 0.798425 1.814735 193 195 190
-0.995403 0.801025 1.820644 189 194 188
-0.997876 0.807048 1.834334 190 195 189
-1.000224 0.813031 1.847934 190 195 188
-0.992102 0.810521 1.842227 193 196 189
-0.987535 0.810905 1.843100 189 192 185
-0.997202 0.823040 1.870682 185 188 181
-1.001596 0.830926 1.888606 188 189 183
-1.009840 0.842104 1.914013 190 191 185
-1.014009 0.849983 1.931921 193 193 185
-0.999709 0.842381 1.914643 186 186 178
-0.994477 0.842381 1.914643 190 191 183
-0.990771 0.843680 1.917596 189 190 182
-0.997947 0.854309 1.941754 0 0 0
-1.000966 0.861474 1.958040 191 194 185
-0.999072 0.864465 1.964838 191 194 183
-0.999450 0.869465 1.976201 188 192 178
-0.996185 0.627786 1.418083 193 196 189
-0.989271 0.625863 1.413739 193 196 189
-0.996068 0.632633 1.429033 192 195 188
-0.980408 0.625138 1.412102 188 190 179
-0.976550 0.625138 1.412102 193 193 183
-0.979677 0.629628 1.422244 187 188 174
-0.981027 0.633007 1.429876 192 190 177
-0.979226 0.634372 1.432959 188 186 173
-0.979029 0.636790 1.438423 188 186 173
-0.984639 0.643020 1.452496 187 188 174
-0.980670 0.643020 1.452496 186 188 175
-0.983757 0.647666 1.462989 182 185 174
-0.994579 0.657463 1.485119 166 169 158
-0.993436 0.659398 1.489490 182 185 176
-1.000049 0.666518 1.505573 0 0 0
-0.995597 0.666291 1.505061 136 139 132
-1.009181 0.678184 1.531926 0 0 0
-1.004995 0.678184 1.531926 199 200 194
-0.999897 0.677566 1.530530 191 192 186
-0.995581 0.677475 1.530324 194 197 190
-0.995907 0.680556 1.537283 195 198 191
-0.991653 0.680519 1.537199 193 196 189
-1.000126 0.689253 1.556929 0 0 0
-0.992722 0.687073 1.552005 192 195 188
-0.996092 0.692364 1.563955 192 195 188
-0.991819 0.692364 1.563955 194 197 190
-0.997557 0.699383 1.579811 193 196 189
-1.000923 0.704792 1.592030 190 195 188
-0.998731 0.706319 1.595479 191 196 189
-0.996231 0.707640 1.598463 192 195 186
-0.992634 0.708190 1.599704 191 194 185
-0.989669 0.709198 1.601981 190 193 184
-0.997611 0.718065 1.622011 0 0 0
-0.993178 0.718065 1.622011 195 198 191
-1.003474 0.728761 1.646172 193 196 189
-0.996176 0.726718 1.641558 194 197 190
-0.985068 0.721865 1.630596 192 195 188
-0.979724 0.721212 1.629119 191 194 187
-0.986332 0.729390 1.647593 0 0 0
-0.998016 0.741414 1.674755 194 197 190
-0.999533 0.745963 1.685028 192 197 190
-0.996665 0.747264 1.687969 193 198 191
-0.992053 0.747264 1.687969 190 195 188
-0.987885 0.747601 1.688729 191 196 189
-0.991709 0.754017 1.703222 191 196 189
-0.997346 0.761878 1.720979 191 196 189
-0.989993 0.759844 1.716385 192 197 190
-0.993861 0.766444 1.731293 192 197 190
-1.000413 0.775187 1.751042 190 195 188
-1.000456 0.778946 1.759533 189 194 187
-0.992173 0.776227 1.753392 191 196 189
-0.995778 0.782828 1.768302 191 196 189
-1.003471 0.792722 1.790651 190 195 188
-0.997891 0.792177 1.789420 176 181 174
-0.993001 0.792177 1.789420 188 193 186
-0.995398 0.798019 1.802616 188 193 186
-0.993103 0.800138 1.807403 191 196 189
-0.994995 0.805669 1.819897 189 192 185
-1.001280 0.814831 1.840592 190 193 186
-0.993559 0.812629 1.835619 192 193 187
-0.988580 0.812660 1.835688 193 194 188
-0.991357 0.819099 1.850233 185 186 178
-0.997202 0.828152 1.870682 184 185 177
-1.001473 0.835984 1.888375 190 190 180
-1.004060 0.842484 1.903057 192 192 182
-1.004027 0.846843 1.912902 191 191 181
-1.008350 0.854939 1.931192 187 187 177
-1.002847 0.854747 1.930758 189 189 181
-0.997571 0.854747 1.930758 191 192 184
-1.003908 0.864750 1.953353 194 195 189
-1.005205 0.870495 1.966331 194 197 190
-1.004043 0.874162 1.974613 192 195 186
-1.008335 0.882642 1.993768 190 193 182
-0.980763 0.621881 1.396128 195 198 189
-0.993622 0.632496 1.419958 0 0 0
-0.988314 0.631583 1.417909 189 190 182
-0.980408 0.628997 1.412102 194 194 184
-0.997835 0.642707 1.442881 0 0 0
-0.993892 0.642707 1.442881 189 190 176
-0.997018 0.647296 1.453184 190 188 173
-0.981303 0.639641 1.435999 193 191 176
-0.988083 0.646646 1.451724 190 191 175
-0.991220 0.651314 1.462204 186 187 173
-0.994122 0.655864 1.472420 192 194 180
-0.990099 0.655864 1.472420 165 169 155
-0.992928 0.660423 1.482653 182 188 176
-0.995553 0.664882 1.492664 184 190 178
-0.993351 0.666140 1.495490 182 188 178
-0.995597 0.670404 1.505061 182 185 176
-1.012451 0.684581 1.536889 0 0 0
-1.017121 0.690603 1.550409 115 116 110
-1.012884 0.690603 1.550409 193 194 188
-1.003091 0.686799 1.541868 196 195 190
-0.995984 0.684809 1.537402 193 194 188
-1.001885 0.691784 1.553060 193 196 189
-0.998841 0.692616 1.554928 190 195 188
-0.998339 0.695225 1.560786 194 197 190
-0.998257 0.698151 1.567355 193 196 189
-0.993975 0.698151 1.567355 195 198 189
-0.994404 0.701475 1.574817 192 195 186
-0.997998 0.707071 1.587379 191 194 185
-0.992698 0.706386 1.585841 191 194 185
-0.996231 0.712008 1.598463 190 193 184
-0.992510 0.712472 1.599506 189 192 181
-0.986528 0.711311 1.596898 187 190 181
-0.995440 0.720925 1.618482 0 0 0
-1.001710 0.728703 1.635944 194 197 190
-0.997240 0.728703 1.635944 192 195 188
-0.997159 0.731926 1.643179 196 199 192
-0.980495 0.722949 1.623026 193 196 189
-0.983012 0.728099 1.634587 193 196 189
-0.995151 0.740454 1.662325 0 0 0
-0.998313 0.746213 1.675253 194 197 190
-1.001153 0.751783 1.687759 194 197 190
-0.991406 0.747909 1.679061 192 195 188
-0.999881 0.757810 1.701289 0 0 0
-0.995233 0.757810 1.701289 191 196 189
-0.997467 0.763076 1.713112 190 195 188
-0.997346 0.766581 1.720979 189 194 187
-0.983783 0.759738 1.705618 191 196 189
-0.985485 0.764676 1.716703 191 196 189
-0.994892 0.775667 1.741378 0 0 0
-0.996722 0.780829 1.752966 191 196 189
-0.994477 0.782832 1.757464 190 195 188
-0.996014 0.787847 1.768721 190 195 188
-1.006819 0.800276 1.796626 191 197 187
-1.003310 0.801395 1.799137 176 182 172
-0.998393 0.801395 1.799137 186 191 184
-0.990773 0.799213 1.794240 188 193 186
-1.000011 0.810677 1.819976 0 0 0
-1.004311 0.818232 1.836937 190 193 186
-0.997614 0.816858 1.833852 191 194 187
-0.987274 0.812473 1.824008 193 194 186
-0.984242 0.814088 1.827633 192 192 184
-0.995858 0.827896 1.858633 0 0 0
-1.001364 0.836741 1.878489 183 183 171
-1.001473 0.841144 1.888375 185 185 173
-0.998265 0.842792 1.892074 186 186 174
-1.000742 0.849282 1.906644 188 188 176
-0.999297 0.852494 1.913855 185 185 175
-1.005935 0.862671 1.936703 0 0 0
-1.003833 0.865422 1.942878 192 193 187
-0.998524 0.865422 1.942878 193 196 187
-1.003656 0.874519 1.963302 193 196 189
-1.005313 0.880671 1.977112 192 195 188
-1.006572 0.886538 1.990284 191 194 185
-0.988689 0.630753 1.407412 189 191 178
-0.998283 0.639361 1.426618 189 191 180
-0.993591 0.638851 1.425480 188 190 179
-0.981315 0.633441 1.413408 193 193 183
-0.997835 0.646649 1.442881 0 0 0
-0.986904 0.642103 1.432736 188 188 176
-0.992392 0.648245 1.446441 190 191 177
-1.003820 0.658332 1.468948 0 0 0
-0.997651 0.656913 1.465783 192 190 175
-0.990612 0.654908 1.461308 189 190 176
-1.002548 0.665481 1.484900 190 192 179
-1.004597 0.669551 1.493981 148 154 140
-1.000515 0.669551 1.493981 188 194 182
-1.001271 0.672802 1.501236 182 188 176
-1.013873 0.684073 1.526385 184 190 178
-1.005448 0.681191 1.519954 180 186 176
-1.012451 0.688781 1.536889 0 0 0
-1.017347 0.694994 1.550754 152 155 148
-1.013110 0.694994 1.550754 131 134 127
-1.002831 0.690833 1.541468 200 201 195
-0.992050 0.686289 1.531329 194 195 189
-0.994249 0.690723 1.541224 194 197 188
-1.002935 0.699721 1.561301 0 0 0
-1.000681 0.701131 1.564447 191 194 187
-1.006471 0.708214 1.580251 188 191 180
-0.988412 0.698503 1.558584 189 192 181
-0.984153 0.698503 1.558584 192 194 183
-0.988254 0.704462 1.571880 189 190 182
-0.994809 0.712231 1.589213 0 0 0
-0.994461 0.715103 1.595622 188 190 177
-0.992510 0.716843 1.599506 192 194 183
-0.995880 0.722458 1.612035 187 188 180
-0.989318 0.720886 1.608527 195 196 188
-1.006987 0.737036 1.644563 0 0 0
-1.002493 0.737036 1.644563 195 198 191
-0.997061 0.736343 1.643017 194 197 190
-0.995697 0.738662 1.648190 194 197 190
-1.003119 0.747549 1.668020 0 0 0
-1.004184 0.751759 1.677413 190 193 186
-1.004789 0.755661 1.686120 192 195 188
-0.995166 0.751871 1.677665 193 196 189
-1.003737 0.761857 1.699945 0 0 0
-0.997311 0.760499 1.696916 193 196 189
-0.997069 0.763866 1.704429 188 191 184
-0.992412 0.763866 1.704429 189 194 187
-0.990861 0.766269 1.709789 191 196 189
-0.983783 0.764399 1.705618 188 193 186
-0.993697 0.775778 1.731008 0 0 0
-0.996821 0.781938 1.744754 190 195 188
-0.992436 0.782240 1.745428 192 197 190
-0.992859 0.786353 1.754603 193 198 191
-0.997492 0.793856 1.771346 191 196 189
-1.000646 0.800249 1.785610 180 186 176
-0.995064 0.799684 1.784350 184 190 180
-0.991791 0.800979 1.787240 187 192 185
-0.986908 0.800979 1.787240 188 193 186
-0.994256 0.810956 1.809501 0 0 0
-1.000900 0.820455 1.830697 192 195 188
-0.991606 0.816920 1.822809 191 194 187
-0.987543 0.817680 1.824505 189 191 180
-0.989249 0.823248 1.836930 187 187 177
-0.995566 0.832731 1.858089 0 0 0
-0.998124 0.839151 1.872412 184 182 169
-0.998543 0.843828 1.882850 189 187 172
-0.998265 0.847962 1.892074 187 185 172
-1.001462 0.855107 1.908016 186 186 174
-0.992628 0.851999 1.901082 190 192 181
-0.989698 0.853954 1.905444 193 196 187
-0.994081 0.862272 1.924003 196 199 192
-1.001278 0.873132 1.948236 0 0 0
-0.995954 0.873132 1.948236 195 198 191
-0.997783 0.879436 1.962302 192 195 188
-1.001430 0.887420 1.980117 190 193 184
-0.970623 0.623003 1.381694 187 189 178
-0.991793 0.639078 1.417344 0 0 0
-0.997967 0.645577 1.431758 190 192 181
-0.982643 0.638166 1.415322 194 196 185
-0.990819 0.646018 1.432736 191 191 181
-0.996344 0.652198 1.446441 193 193 181
-0.994376 0.653502 1.449334 189 190 176
-0.999254 0.659333 1.462267 188 189 175
-0.994495 0.658828 1.461146 189 191 177
-0.986785 0.656355 1.455661 184 188 174
-1.003119 0.669920 1.485745 0 0 0
-1.007463 0.675555 1.498243 154 158 144
-1.003369 0.675555 1.498243 189 195 183
-1.001876 0.677314 1.502144 189 195 183
-1.007537 0.683943 1.516846 186 192 178
-1.005154 0.685144 1.519509 184 190 176
-1.021165 0.698945 1.550117 0 0 0
-1.017347 0.699232 1.550754 185 191 179
-0.989081 0.682648 1.513973 118 121 112
-0.984944 0.682648 1.513973 163 166 157
-0.983160 0.684285 1.517605 195 196 188
-0.991125 0.692751 1.536381 191 192 184
-1.005564 0.705833 1.565394 0 0 0
-1.007196 0.709999 1.574633 189 192 181
-1.002889 0.709996 1.574626 183 185 172
-1.001717 0.712222 1.579563 187 189 176
-0.997400 0.712222 1.579563 191 192 178
-1.005481 0.721113 1.599281 0 0 0
-1.011397 0.728521 1.615712 190 191 177
-1.003757 0.726188 1.610538 188 189 175
-1.000412 0.726955 1.612239 185 186 172
-0.995880 0.726864 1.612035 187 187 175
-1.007738 0.738786 1.638478 0 0 0
-1.006697 0.741317 1.644090 193 194 186
-1.005949 0.744086 1.650232 191 194 187
-1.001439 0.744086 1.650232 194 197 190
-1.003665 0.749113 1.661380 193 196 189
-0.995760 0.746590 1.655785 194 197 190
-1.006103 0.757788 1.680619 192 193 187
-1.002109 0.758241 1.681623 193 194 188
-1.000961 0.760861 1.687436 192 193 187
-0.984285 0.751648 1.667001 191 194 187
-1.001911 0.768665 1.704742 0 0 0
-0.997201 0.768625 1.704655 190 193 186
-0.992543 0.768625 1.704655 190 195 188
-0.991642 0.771549 1.711138 188 193 186
-0.988922 0.773078 1.714529 188 193 186
-0.993697 0.780508 1.731008 188 193 186
-0.992858 0.783578 1.737817 190 195 188
-0.991205 0.786033 1.743262 190 195 188
-0.990209 0.789036 1.749921 189 194 187
-0.998523 0.799522 1.773177 0 0 0
-0.998068 0.803054 1.781011 173 179 169
-0.997437 0.806479 1.788606 188 194 184
-0.988920 0.803530 1.782066 185 190 183
-0.985352 0.804593 1.784423 184 189 182
-0.980476 0.804593 1.784423 189 194 187
-0.978694 0.807145 1.790083 189 194 187
-0.979543 0.811903 1.800635 186 191 184
-0.986514 0.821809 1.822605 184 186 173
-0.989405 0.828399 1.837220 184 185 171
-0.988599 0.831945 1.845085 186 184 171
-1.000653 0.846406 1.877155 185 182 167
-1.000017 0.850226 1.885628 186 184 169
-1.001030 0.855495 1.897315 188 186 173
-1.001462 0.860321 1.908016 194 196 185
-0.989271 0.854295 1.894653 193 196 187
-0.989509 0.858997 1.905080 193 196 189
-0.989562 0.863586 1.915258 193 198 191
-0.996151 0.873958 1.938261 0 0 0
-0.990855 0.873958 1.938261 194 197 188
-0.996940 0.884050 1.960644 188 191 182
-0.996985 0.888868 1.971328 188 190 177
-1.003481 0.899519 1.994950 0 0 0
-1.001478 0.646703 1.425617 192 194 183
-0.997582 0.646703 1.425617 189 192 181
-0.981786 0.638958 1.408543 192 195 184
-0.974218 0.636528 1.403186 190 192 179
-0.978917 0.642126 1.415526 192 194 181
-0.998337 0.657462 1.449334 0 0 0
-0.994376 0.657462 1.449334 189 192 175
-0.986220 0.654677 1.443194 187 190 173
-0.986315 0.657368 1.449127 186 190 175
-0.970681 0.649556 1.431905 182 186 172
-0.991107 0.665909 1.467954 0 0 0
-0.994157 0.670673 1.478456 191 197 185
-0.999526 0.677046 1.492506 189 195 183
-0.995448 0.677046 1.492506 188 194 180
-0.970693 0.662926 1.461378 187 191 176
-0.998938 0.685033 1.510112 0 0 0
-1.013520 0.697916 1.538512 0 0 0
-1.013205 0.700605 1.544440 185 189 175
-0.989081 0.686785 1.513973 184 187 176
-0.984944 0.686785 1.513973 139 142 133
-0.997166 0.701197 1.545745 194 194 182
-0.998131 0.704862 1.553823 188 188 176
-0.996979 0.707056 1.558660 183 185 172
-0.995499 0.709036 1.563024 181 183 169
-1.006411 0.719896 1.586965 186 187 171
-1.042910 0.749232 1.651635 0 0 0
-1.038397 0.749232 1.651635 187 188 172
-1.024017 0.742082 1.635874 190 188 173
-1.014063 0.738091 1.627074 189 187 172
-1.005275 0.734916 1.620077 186 184 169
-1.003711 0.737019 1.624711 185 186 170
-1.007738 0.743264 1.638478 187 189 176
-1.015616 0.752417 1.658655 190 192 181
-1.006115 0.748719 1.650505 193 196 189
-1.001605 0.748719 1.650505 194 197 190
-0.987823 0.741757 1.635156 194 196 191
-0.989780 0.746604 1.645841 193 195 190
-1.000575 0.758192 1.671386 0 0 0
-1.007387 0.766854 1.690481 192 191 186
-1.004572 0.768234 1.693523 189 190 184
-0.996645 0.765699 1.687934 192 193 187
-1.002184 0.773534 1.705207 191 194 187
-1.003619 0.778260 1.715626 191 194 187
-1.000816 0.779729 1.718863 191 196 189
-0.996119 0.779729 1.718863 189 194 187
-0.990752 0.779202 1.717701 191 194 187
-0.995499 0.786662 1.734146 192 195 188
-0.992858 0.788327 1.737817 191 194 187
-0.986805 0.787287 1.735525 190 195 188
-0.988168 0.792181 1.746314 187 193 183
-0.998464 0.804319 1.773071 0 0 0
-1.007149 0.815272 1.797216 178 181 172
-1.001839 0.814947 1.796499 188 191 182
-0.989505 0.808878 1.783120 188 191 184
-0.984782 0.809001 1.783391 191 194 187
-0.981546 0.810353 1.786371 194 197 190
-0.976665 0.810353 1.786371 190 195 188
-0.980835 0.817900 1.803010 187 193 183
-0.988345 0.828324 1.825987 187 189 176
-0.991086 0.834835 1.840341 191 192 178
-0.998646 0.845493 1.863836 187 185 170
-1.001234 0.852030 1.878246 184 181 166
-1.011759 0.865422 1.907769 0 0 0
-1.005151 0.864223 1.905125 188 188 176
-0.998391 0.862880 1.902165 193 194 186
-0.989271 0.859472 1.894653 193 196 189
-0.992891 0.867156 1.911591 191 196 189
-0.990063 0.869259 1.916227 191 196 189
-0.998005 0.880891 1.941869 0 0 0
-1.002539 0.889623 1.961117 192 195 186
-0.997180 0.889623 1.961117 191 194 183
-1.000350 0.897273 1.977981 188 190 177
-1.004496 0.905886 1.996968 182 185 166
-1.032665 0.670859 1.470012 192 193 185
-1.028648 0.670859 1.470012 193 196 187
-0.995181 0.651577 1.427761 193 196 185
-0.967886 0.636200 1.394066 191 193 180
-0.978638 0.645809 1.415122 0 0 0
-0.985463 0.652893 1.430645 0 0 0
-0.990164 0.658620 1.443194 185 188 169
-0.986220 0.658620 1.443194 184 187 168
-0.989614 0.663541 1.453975 185 189 174
-0.948164 0.638310 1.398689 145 151 139
-0.974045 0.658387 1.442683 0 0 0
-0.974149 0.661134 1.448701 188 191 180
-0.993592 0.685471 1.502030 188 190 176
-1.005282 0.696413 1.526007 0 0 0
-1.025181 0.713156 1.562695 186 190 176
-0.993082 0.693717 1.520098 185 189 175
-0.997454 0.705625 1.546192 112 114 101
-1.002833 0.712448 1.561143 164 164 152
-0.987540 0.704581 1.543903 183 183 171
-0.994798 0.712804 1.561923 0 0 0
-1.002730 0.721583 1.581160 186 187 173
-1.022554 0.739034 1.619398 0 0 0
-1.031862 0.749002 1.641241 0 0 0
-1.027377 0.749002 1.641241 188 189 173
-1.024571 0.750231 1.643934 187 188 174
-1.014744 0.746307 1.635336 185 186 172
-1.007731 0.744428 1.631219 188 189 175
-1.015743 0.753681 1.651493 189 190 176
-1.015616 0.756949 1.658655 183 185 172
-1.000455 0.748992 1.641219 187 190 181
-0.992151 0.746120 1.634925 189 192 183
-0.987683 0.746120 1.634925 193 196 187
-0.999196 0.758247 1.661499 0 0 0
-1.001039 0.763113 1.672161 190 193 186
-1.000887 0.766495 1.679573 190 191 185
-1.003344 0.771916 1.691452 188 191 184
-0.996956 0.770552 1.688462 190 193 186
-1.000735 0.777068 1.702741 194 197 190
-0.994415 0.775768 1.699892 191 194 187
-1.009872 0.791523 1.734415 0 0 0
-0.997459 0.785481 1.721175 193 196 187
-0.992756 0.785481 1.721175 192 195 186
-0.986396 0.784164 1.718289 191 194 185
-0.985485 0.787186 1.724912 192 195 186
-0.986805 0.792030 1.735525 192 195 186
-0.989148 0.797744 1.748046 183 186 177
-1.001609 0.811713 1.778656 0 0 0
-1.006390 0.819565 1.795862 190 193 184
-1.006859 0.823964 1.805501 188 191 182
-0.997945 0.820691 1.798328 186 191 184
-0.991895 0.819753 1.796272 187 192 185
-0.994972 0.826384 1.810804 189 194 187
-0.990024 0.826384 1.810804 192 197 190
-0.992326 0.832466 1.824132 190 196 186
-0.987418 0.832532 1.824274 188 190 177
-0.991204 0.839964 1.840560 184 185 171
-0.997408 0.849532 1.861525 186 187 173
-1.005243 0.860594 1.885766 184 182 169
-1.014495 0.872990 1.912929 0 0 0
-1.011014 0.874501 1.916239 189 189 179
-0.987812 0.858880 1.882009 193 196 189
-0.987512 0.863112 1.891284 193 196 189
-0.992891 0.872379 1.911591 189 194 187
-1.002475 0.885459 1.940250 0 0 0
-1.002021 0.889763 1.949682 193 198 191
-1.003712 0.896029 1.963412 190 193 182
-1.009568 0.906100 1.985479 0 0 0
-1.004142 0.906100 1.985479 188 190 176
0.027611 0.061550 0.134870 234 242 245
-0.999014 0.652885 1.422110 194 195 187
-0.994539 0.652498 1.421267 192 194 183
-0.990655 0.652498 1.421267 192 194 181
-0.986706 0.652455 1.421173 191 192 176
-0.964519 0.640304 1.394706 190 191 173
-0.980052 0.653196 1.422788 0 0 0
-0.984167 0.658552 1.434454 184 185 167
-0.980248 0.658552 1.434454 184 187 168
-0.989614 0.667514 1.453975 182 186 169
-0.977256 0.661834 1.441604 168 172 157
-0.960391 0.653046 1.422461 182 188 174
-0.974288 0.667901 1.454819 187 189 175
-1.004043 0.691120 1.505393 0 0 0
-0.999930 0.691120 1.505393 185 186 170
-0.994926 0.690502 1.504047 187 188 174
-1.018516 0.709806 1.546096 0 0 0
-1.008083 0.705461 1.536632 189 191 180
-1.009959 0.709730 1.545931 186 188 177
-0.989869 0.698535 1.521544 189 193 179
-1.001679 0.709850 1.546192 185 189 175
-0.997454 0.709850 1.546192 177 181 167
-0.986307 0.707914 1.541975 186 186 174
-0.991670 0.714817 1.557011 188 188 176
-1.007147 0.729102 1.588125 0 0 0
-1.013554 0.736915 1.605145 188 188 176
-1.025970 0.749185 1.631870 0 0 0
-1.021511 0.749185 1.631870 189 189 177
-1.018982 0.750606 1.634966 188 188 176
-1.009014 0.746537 1.626103 189 189 177
-1.007781 0.748923 1.631300 191 191 179
-1.013122 0.756237 1.647231 190 190 178
-1.008734 0.756321 1.647416 184 186 173
-1.000455 0.753477 1.641219 186 188 177
-1.004934 0.760258 1.655990 191 193 182
-1.014345 0.770849 1.679059 192 194 183
-1.009757 0.770849 1.679059 190 191 183
-1.006532 0.771894 1.681336 189 190 182
-1.005168 0.774383 1.686758 189 190 184
-1.021083 0.790268 1.721357 0 0 0
-1.004797 0.781262 1.701741 191 194 187
-0.998150 0.779702 1.698344 192 195 188
-1.007131 0.790393 1.721629 190 193 186
-1.001902 0.789979 1.720728 192 193 185
-0.996734 0.789609 1.719923 192 194 183
-0.992034 0.789609 1.719923 191 192 184
-0.984507 0.787348 1.714998 192 195 186
-0.974959 0.783441 1.706488 191 194 183
-0.980037 0.791307 1.723621 187 190 181
-0.989148 0.802520 1.748046 177 180 171
-0.985478 0.803423 1.750011 186 187 179
-1.004832 0.823196 1.793080 0 0 0
-1.009485 0.831059 1.810210 189 192 183
-0.996049 0.824037 1.794913 188 193 186
-0.997212 0.829081 1.805900 188 193 186
-1.001578 0.836853 1.822828 191 196 189
-1.002585 0.841880 1.833780 190 196 186
-0.997574 0.841880 1.833780 191 194 185
-0.997663 0.846206 1.843202 188 191 180
-0.996365 0.849394 1.850145 187 188 174
-1.001587 0.858199 1.869325 187 188 174
-1.002692 0.863551 1.880982 183 183 171
-1.014027 0.877812 1.912047 0 0 0
-0.983836 0.856088 1.864726 192 193 185
-0.983081 0.859885 1.872996 193 196 189
-0.990270 0.870706 1.896567 0 0 0
-1.000455 0.884289 1.926154 195 198 191
-1.002475 0.890761 1.940250 193 196 189
-0.998606 0.892040 1.943037 194 195 189
-1.004210 0.901841 1.964386 188 190 179
-1.011418 0.913196 1.989118 0 0 0
0.002489 0.042160 0.091832 233 241 244
-0.995546 0.654491 1.417173 191 193 182
-1.006945 0.664569 1.438997 0 0 0
-1.003013 0.664569 1.438997 188 189 175
-1.004557 0.668212 1.446884 189 188 170
-1.007986 0.673142 1.457560 190 188 173
-0.981664 0.658165 1.425130 184 185 167
-0.980946 0.660303 1.429758 181 184 165
-0.998701 0.674943 1.461458 188 191 174
-0.994708 0.674943 1.461458 179 182 165
-0.977256 0.665774 1.441604 186 190 175
-0.960391 0.656933 1.422461 186 188 174
-1.003466 0.689186 1.492300 0 0 0
-1.002115 0.691066 1.496371 187 188 172
-1.003278 0.694703 1.504246 186 187 171
-0.999168 0.694703 1.504246 182 183 167
-0.979405 0.683775 1.480584 189 189 177
-0.977740 0.685444 1.484198 191 193 182
-0.992105 0.698412 1.512277 189 191 180
-0.987798 0.698289 1.512009 188 191 180
-0.999659 0.709642 1.536592 0 0 0
-0.998724 0.711968 1.541630 186 192 178
-0.994511 0.711968 1.541630 186 192 180
-0.983890 0.710383 1.538196 102 105 94
-1.000888 0.725756 1.571485 0 0 0
-1.008240 0.734237 1.589849 0 0 0
-1.017757 0.744376 1.611802 188 188 178
-1.011716 0.743173 1.609198 188 188 176
-1.018917 0.751730 1.627725 0 0 0
-1.014469 0.751730 1.627725 188 188 180
-1.010964 0.752432 1.629246 188 188 178
-1.002238 0.749236 1.622327 191 191 181
-1.003650 0.753626 1.631831 193 193 183
-1.005968 0.758737 1.642898 190 190 180
-1.001786 0.758970 1.643402 190 192 181
-1.004934 0.764783 1.655990 191 193 182
-1.007241 0.770006 1.667300 189 191 180
-1.002685 0.770006 1.667300 188 189 181
-1.002726 0.773552 1.674978 191 194 185
-1.002982 0.777298 1.683088 190 193 186
-1.008666 0.785304 1.700424 0 0 0
-1.007304 0.787873 1.705986 191 194 187
-1.011457 0.794799 1.720984 192 195 188
-1.007782 0.795610 1.722741 190 193 184
-1.008771 0.800129 1.732525 192 193 185
-1.003538 0.799732 1.731665 194 196 185
-0.986618 0.789972 1.710533 191 193 182
-0.981943 0.789972 1.710533 192 194 183
-0.970358 0.784386 1.698436 190 192 181
-0.978530 0.794793 1.720971 0 0 0
-0.980052 0.799873 1.731971 172 175 164
-0.985478 0.808205 1.750011 193 196 187
-1.004039 0.827441 1.791665 0 0 0
-0.997011 0.825676 1.787842 188 191 182
-0.999367 0.831703 1.800892 187 192 185
-0.994400 0.831664 1.800808 191 196 189
-0.994990 0.836296 1.810838 189 194 187
-0.998948 0.843819 1.827128 193 199 189
-1.001652 0.850353 1.841276 192 195 186
-0.996621 0.850353 1.841276 188 190 179
-1.004148 0.861124 1.864597 187 189 175
-1.009670 0.870274 1.884411 183 185 171
-1.006899 0.872335 1.888873 182 184 171
-0.991339 0.863279 1.869265 186 189 178
-0.978112 0.856173 1.853876 191 194 185
-0.986684 0.868172 1.879859 0 0 0
-0.993596 0.878830 1.902937 193 196 189
-0.997128 0.886594 1.919747 195 196 190
-1.001241 0.894959 1.937862 194 195 189
-0.998606 0.897349 1.943037 189 190 182
-1.004210 0.907209 1.964386 186 188 177
-1.008296 0.915795 1.982978 188 188 176
-1.001131 0.914201 1.979525 190 190 178
-0.995722 0.914201 1.979525 191 191 179
-1.014520 0.670911 1.444182 193 195 184
-1.011986 0.671848 1.446200 187 189 175
-1.017882 0.678412 1.460329 187 188 172
-1.013892 0.678412 1.460329 186 185 167
-1.012815 0.680369 1.464543 188 186 171
-0.989262 0.667183 1.436159 186 184 169
-0.973123 0.658913 1.418356 186 188 174
-0.992253 0.674553 1.452022 0 0 0
-0.988285 0.674553 1.452022 170 173 154
-0.994812 0.681745 1.467503 0 0 0
-0.997286 0.686206 1.477107 184 183 165
-1.003466 0.693264 1.492300 187 186 168
-1.012782 0.702555 1.512300 0 0 0
-1.017383 0.708638 1.525394 184 183 165
-0.977813 0.683879 1.472097 186 187 171
-0.973791 0.683879 1.472097 192 194 181
-0.973162 0.686272 1.477248 191 193 182
-0.969558 0.686578 1.477908 188 191 182
-0.979164 0.696281 1.498793 0 0 0
-1.004979 0.720667 1.551286 185 191 179
-0.995506 0.716897 1.543171 186 192 178
-0.991289 0.716897 1.543171 184 190 176
-0.983890 0.714586 1.538196 182 185 174
-1.002919 0.731532 1.574673 0 0 0
-1.013612 0.742517 1.598320 0 0 0
-1.008981 0.742323 1.597903 188 189 181
-1.001076 0.739708 1.592274 189 189 181
-1.018161 0.755617 1.626519 0 0 0
-1.013717 0.755617 1.626519 190 190 182
-1.011119 0.756999 1.629495 189 189 181
-1.005172 0.755876 1.627077 192 192 184
-0.998346 0.754078 1.623206 191 192 184
-1.002913 0.760908 1.637908 192 193 185
-1.002037 0.763652 1.643815 191 193 182
-1.007459 0.771241 1.660150 190 191 183
-1.007241 0.774562 1.667300 188 189 181
-1.003858 0.775469 1.669251 192 193 185
-0.999297 0.775469 1.669251 192 195 188
-0.998376 0.778306 1.675359 190 193 186
-1.000785 0.783779 1.687139 192 195 188
-1.003797 0.789775 1.700047 191 194 187
-1.009726 0.798134 1.718040 192 195 186
-1.008557 0.800934 1.724067 191 192 184
-1.012581 0.807903 1.739069 189 191 180
-1.011884 0.811154 1.746066 187 189 176
-0.994843 0.801272 1.724794 189 190 176
-0.984183 0.796459 1.714433 189 191 177
-0.979498 0.796459 1.714433 188 190 177
-0.993276 0.811544 1.746905 186 188 177
-0.988515 0.811553 1.746926 184 187 176
-0.984623 0.812281 1.748493 191 194 185
-1.004039 0.832337 1.791665 0 0 0
-0.995128 0.828993 1.784466 192 195 186
-0.982948 0.822878 1.771304 189 194 187
-1.002822 0.843670 1.816060 0 0 0
-0.992248 0.838926 1.805848 190 195 188
-0.996922 0.847091 1.823422 189 195 185
-1.004379 0.857713 1.846288 0 0 0
-0.999334 0.857713 1.846288 187 190 179
-0.999645 0.862333 1.856234 185 187 173
-1.016820 0.881623 1.897757 0 0 0
-1.007880 0.878351 1.890713 182 184 171
-0.996530 0.872935 1.879054 187 190 181
-0.994441 0.875617 1.884827 191 194 185
-0.993347 0.879206 1.892554 193 196 189
-0.993679 0.884103 1.903095 193 196 189
-0.996095 0.890916 1.917759 191 194 185
-0.991920 0.891873 1.919820 188 189 181
-0.997607 0.901756 1.941095 0 0 0
-0.999428 0.908231 1.955032 186 188 177
-1.008296 0.921214 1.982978 0 0 0
-0.992227 0.911431 1.961920 193 193 183
0.011114 0.072894 0.156910 210 218 221
-1.014520 0.674857 1.444182 191 193 182
-1.011986 0.675800 1.446200 188 190 176
-1.005379 0.674020 1.442391 189 190 176
-1.001437 0.674020 1.442391 187 188 170
-0.983889 0.664825 1.422715 187 189 176
-1.008178 0.683940 1.463621 0 0 0
-1.004854 0.684401 1.464606 190 194 180
-0.998492 0.685528 1.467018 173 177 160
-0.994484 0.685528 1.467018 184 185 167
-0.994972 0.688640 1.473679 186 185 167
-1.007222 0.699952 1.497886 0 0 0
-1.012782 0.706688 1.512300 181 180 159
-1.006255 0.705010 1.508710 181 180 160
-0.980986 0.690134 1.476874 190 191 177
-0.976951 0.690134 1.476874 191 193 182
-0.971922 0.689429 1.475367 191 192 184
-0.968700 0.690006 1.476601 192 195 186
-0.982580 0.702820 1.504023 0 0 0
-1.015276 0.729257 1.560597 0 0 0
-1.012410 0.730266 1.562757 191 194 183
-1.001877 0.725729 1.553047 187 190 179
-0.997633 0.725729 1.553047 184 190 178
-1.001134 0.731387 1.565155 186 192 178
-1.002919 0.735834 1.574673 183 189 177
-1.010820 0.744827 1.593918 0 0 0
-0.989276 0.732107 1.566696 125 126 118
-1.018164 0.756760 1.619454 0 0 0
-0.998938 0.745711 1.595809 193 194 186
-1.017928 0.763219 1.633276 0 0 0
-1.013465 0.763219 1.633276 187 188 180
-1.004135 0.759537 1.625397 191 192 184
-0.999875 0.759675 1.625692 191 194 187
-1.005225 0.767148 1.641685 190 193 186
-1.000916 0.767284 1.641976 192 195 186
-1.000596 0.770493 1.648842 191 194 185
-1.004969 0.777360 1.663538 194 197 190
-1.003858 0.780030 1.669251 193 196 189
-1.006198 0.785416 1.680778 192 195 188
-1.000031 0.784182 1.678137 193 196 189
-0.993311 0.782500 1.674538 193 196 187
-0.999373 0.790920 1.692556 0 0 0
-1.000453 0.795456 1.702262 192 194 183
-1.001704 0.800170 1.712351 187 189 178
-1.007642 0.808691 1.730585 0 0 0
-1.010358 0.814695 1.743433 184 185 171
-1.007852 0.816524 1.747348 186 187 173
-0.994830 0.809811 1.732981 187 188 174
-0.990095 0.809811 1.732981 187 189 176
-1.000102 0.821927 1.758911 178 181 170
-0.999542 0.825433 1.766414 185 188 179
-1.000038 0.829850 1.775866 188 191 182
-0.995444 0.830066 1.776328 193 196 189
-0.995128 0.833869 1.784466 190 193 186
-0.987738 0.831752 1.779936 192 195 188
-0.996826 0.843559 1.805202 0 0 0
-1.007156 0.856539 1.832979 191 196 189
-1.002462 0.856808 1.833554 189 192 185
-0.999395 0.858478 1.837128 187 190 181
-0.998115 0.861706 1.844037 186 189 178
-0.993076 0.861706 1.844037 188 190 176
-0.992517 0.865614 1.852399 185 187 173
-1.006972 0.882722 1.889011 0 0 0
-1.012326 0.891988 1.908839 185 189 175
-1.010337 0.894845 1.914954 188 191 180
-1.006419 0.896016 1.917460 191 194 185
-1.003745 0.898312 1.922373 191 194 185
-0.995186 0.895338 1.916009 188 191 180
-0.997440 0.902112 1.930505 188 191 180
-1.001786 0.910860 1.949225 188 191 180
-1.002263 0.916165 1.960577 189 190 182
-0.996961 0.916215 1.960685 195 196 188
-0.992227 0.916792 1.961920 190 190 182
0.029922 0.081324 0.174031 219 229 230
-1.006504 0.673440 1.432771 190 192 181
-0.988251 0.663809 1.412281 186 188 177
-1.005379 0.677961 1.442391 0 0 0
-0.993167 0.672362 1.430479 196 199 188
-0.989258 0.672362 1.430479 195 198 187
-1.013513 0.691580 1.471366 0 0 0
-1.011167 0.692727 1.473807 189 192 181
-0.991523 0.681986 1.450954 164 168 153
-0.981324 0.677680 1.441794 187 188 170
-1.007690 0.704372 1.498581 188 185 166
-1.016042 0.713108 1.517167 184 181 162
-1.006255 0.709133 1.508710 184 181 164
-0.998038 0.706235 1.502545 189 190 176
-0.974589 0.692491 1.473303 191 192 184
-0.970563 0.692491 1.473303 192 193 187
-0.972330 0.696641 1.482134 191 194 187
-1.004769 0.722894 1.537987 0 0 0
-1.019560 0.736616 1.567182 0 0 0
-1.016882 0.737780 1.569659 189 192 183
-1.000686 0.729105 1.551202 189 192 181
-1.013457 0.741552 1.577682 0 0 0
-1.009146 0.741552 1.577682 184 187 176
-1.008921 0.744567 1.584098 187 193 181
-1.010820 0.749183 1.593918 186 192 180
-1.010917 0.752497 1.600969 183 189 179
-1.039315 0.776998 1.653096 0 0 0
-1.029408 0.772951 1.644485 145 148 139
-1.008901 0.760874 1.618792 188 189 183
-1.004478 0.760874 1.618792 190 191 185
-1.004057 0.763920 1.625272 190 191 185
-0.994575 0.760067 1.617075 192 195 188
-0.996971 0.765299 1.628205 191 194 187
-0.997711 0.769300 1.636717 192 195 188
-1.009599 0.781971 1.663677 0 0 0
-1.014151 0.789050 1.678738 192 195 188
-1.010790 0.790009 1.680778 190 193 186
-1.004617 0.788768 1.678137 194 195 189
-1.002565 0.790766 1.682389 193 196 189
-0.995108 0.788500 1.677568 193 196 187
-0.995415 0.792394 1.685852 192 193 185
-0.998045 0.798181 1.698164 191 193 179
-0.998330 0.802139 1.706584 186 187 171
-1.001614 0.808554 1.720234 188 186 171
-0.999225 0.810429 1.724222 187 186 168
-1.001405 0.816045 1.736171 188 186 171
-0.991406 0.811743 1.727016 189 190 176
-0.994252 0.817967 1.740258 187 187 175
-0.989497 0.817967 1.740258 178 180 169
-0.997784 0.828800 1.763308 0 0 0
-1.001259 0.835722 1.778034 188 191 182
-1.000978 0.839562 1.786203 189 192 185
-0.991340 0.835552 1.777673 189 192 185
-0.987738 0.836616 1.779936 188 191 184
-0.999361 0.850650 1.809793 0 0 0
-1.004718 0.859463 1.828543 189 194 187
-1.007482 0.866134 1.842736 187 192 185
-1.007220 0.870258 1.851511 185 191 181
-1.009891 0.876971 1.865793 191 194 183
-0.997317 0.870446 1.851911 183 185 171
-0.992256 0.870446 1.851911 187 189 175
-0.988773 0.871837 1.854869 187 189 175
-1.008701 0.893991 1.902003 0 0 0
-1.007926 0.897931 1.910386 190 192 179
-1.000420 0.895883 1.906030 187 189 176
-0.995947 0.896546 1.907439 185 188 177
-1.002630 0.907310 1.930339 0 0 0
-1.011517 0.920193 1.957750 188 191 180
-1.013728 0.927108 1.972461 189 195 185
-1.005787 0.924762 1.967471 192 195 186
-0.999559 0.923975 1.965795 193 196 187
-1.000704 0.930032 1.978682 192 195 188
0.010362 0.040584 0.086343 175 184 181
-1.009351 0.679271 1.436824 189 191 180
-1.007902 0.680945 1.440365 189 190 182
-0.989137 0.670887 1.419090 193 194 186
-0.993167 0.676271 1.430479 196 199 190
-1.011965 0.691794 1.463314 0 0 0
-1.033510 0.709325 1.500397 0 0 0
-1.007856 0.694473 1.468981 183 186 175
-0.989409 0.684488 1.447861 181 183 169
-0.986462 0.685189 1.449343 190 189 171
-0.998228 0.696157 1.472542 0 0 0
-0.994204 0.696157 1.472542 188 185 168
-1.006194 0.707415 1.496356 0 0 0
-1.010446 0.713303 1.508811 185 183 168
-1.002166 0.710357 1.502579 185 186 172
-0.998038 0.710341 1.502545 188 190 179
-0.984172 0.703366 1.487791 192 193 185
-0.980107 0.703366 1.487791 193 196 189
-0.968121 0.697658 1.475718 194 197 190
-0.987522 0.714616 1.511587 0 0 0
-1.019387 0.740773 1.566917 0 0 0
-1.013886 0.739884 1.565035 189 192 183
-1.010719 0.740697 1.566755 188 191 180
-1.007837 0.741726 1.568932 188 192 178
-1.003549 0.741726 1.568932 189 192 181
-1.024598 0.760532 1.608712 0 0 0
-1.016187 0.757539 1.602381 188 194 184
-1.010917 0.756872 1.600969 186 192 182
-1.007860 0.757863 1.603065 192 198 188
-1.011269 0.763746 1.615509 114 120 110
-1.009677 0.765886 1.620037 132 135 128
-1.001836 0.763285 1.614534 193 194 188
-0.997424 0.763285 1.614534 193 194 188
-0.997869 0.767019 1.622432 193 194 188
-0.996753 0.769580 1.627849 194 197 190
-0.995200 0.771825 1.632598 193 196 189
-1.024929 0.798461 1.688940 0 0 0
-1.016655 0.795597 1.682882 194 195 189
-1.006078 0.790897 1.672941 193 196 189
-1.007162 0.795364 1.682389 194 195 189
-0.999692 0.793084 1.677568 195 198 191
-0.995108 0.793084 1.677568 193 194 186
-0.997822 0.798928 1.689927 192 194 183
-0.997815 0.802637 1.697774 189 190 174
-0.997547 0.806169 1.705245 186 187 169
-0.997194 0.809666 1.712641 186 183 166
-0.998360 0.814435 1.722729 188 185 168
-0.987186 0.809135 1.711519 189 187 172
-0.989841 0.815173 1.724290 189 187 174
-0.997335 0.825273 1.745655 183 183 171
-1.001010 0.832295 1.760507 183 185 174
-0.996199 0.832295 1.760507 191 194 185
-1.004763 0.843523 1.784258 191 194 185
-1.006947 0.849479 1.796855 189 192 185
-0.996146 0.844484 1.786291 187 190 183
-0.989613 0.843077 1.783314 193 196 189
-0.999361 0.855595 1.809793 0 0 0
-1.002174 0.862270 1.823913 191 196 189
-1.008654 0.872183 1.844880 0 0 0
-1.011041 0.878638 1.858535 188 194 182
-1.010937 0.882984 1.867726 189 192 181
-0.999389 0.877326 1.855760 178 180 166
-0.994318 0.877326 1.855760 187 188 174
-0.988697 0.876838 1.854727 186 187 173
-0.994177 0.886241 1.874617 189 190 176
-1.009851 0.904876 1.914033 0 0 0
-0.996839 0.897867 1.899208 185 187 174
-0.994077 0.900065 1.903857 185 187 176
-1.001803 0.911832 1.928748 0 0 0
-1.015880 0.929535 1.966194 194 197 188
-1.015323 0.933965 1.975564 191 197 187
-1.014813 0.938486 1.985127 191 197 187
-1.015254 0.943939 1.996662 193 196 189
-1.011880 0.687584 1.446050 192 193 185
-0.994455 0.678392 1.426718 194 197 190
-1.015964 0.695793 1.463314 0 0 0
-1.037610 0.713425 1.500397 0 0 0
-1.011811 0.698447 1.468895 191 194 185
-1.022690 0.708768 1.490602 150 153 142
-0.989004 0.688163 1.447268 185 187 173
-1.010923 0.706239 1.485282 0 0 0
-1.003693 0.704014 1.480604 189 188 170
-1.005687 0.708268 1.489550 187 186 168
-1.001617 0.708268 1.489550 186 187 171
-1.020516 0.724576 1.523848 0 0 0
-1.010085 0.720108 1.514452 187 189 176
-0.982659 0.703438 1.479392 191 194 185
-0.984172 0.707431 1.487791 191 194 187
-0.990443 0.714892 1.503481 190 195 188
-0.986334 0.714892 1.503481 193 198 191
-0.987012 0.718375 1.510806 192 195 188
-1.000011 0.730893 1.537133 0 0 0
-1.016823 0.746316 1.569568 0 0 0
-1.004936 0.740715 1.557790 189 191 180
-0.999217 0.739633 1.555514 191 193 180
-1.008175 0.749452 1.576164 189 192 181
-1.003868 0.749452 1.576164 192 195 186
-1.013007 0.759533 1.597365 0 0 0
-1.012928 0.762761 1.604154 186 192 182
-1.007860 0.762243 1.603065 189 194 187
-1.002760 0.761696 1.601915 183 188 181
-1.008208 0.769192 1.617680 138 141 134
-1.007169 0.771784 1.623130 129 132 125
-1.006889 0.774982 1.629855 197 200 193
-1.002435 0.774982 1.629855 194 195 189
-0.987531 0.766866 1.612787 195 196 191
-1.010878 0.788516 1.658318 0 0 0
-1.019606 0.798904 1.680167 192 195 188
-0.995275 0.783368 1.647493 194 197 190
-0.998770 0.789691 1.660790 192 195 188
-1.011548 0.803445 1.689716 191 194 187
-1.009402 0.805416 1.693861 193 196 189
-1.004773 0.805416 1.693861 194 197 188
-0.997822 0.803545 1.689927 191 194 183
-0.996733 0.806400 1.695932 190 191 175
-0.991557 0.805960 1.695006 187 186 168
-0.996074 0.813431 1.710718 185 182 163
-0.992592 0.814410 1.712777 187 184 167
-0.990529 0.816567 1.717314 186 183 166
-0.992414 0.822016 1.728772 188 186 173
-1.000549 0.832718 1.751279 179 179 167
-1.006962 0.842083 1.770974 0 0 0
-1.002122 0.842083 1.770974 195 196 188
-1.001374 0.845536 1.778238 190 191 183
-1.000292 0.848742 1.784979 188 189 183
-0.998646 0.851497 1.790774 187 188 182
-1.001124 0.857813 1.804058 193 194 188
-1.002149 0.862941 1.814842 192 195 186
-1.002174 0.867254 1.823913 187 193 183
-0.985407 0.857007 1.802361 193 196 187
-1.008054 0.881106 1.853043 0 0 0
-1.009852 0.887134 1.865721 181 183 170
-1.007112 0.889216 1.870099 178 180 166
-0.999442 0.886944 1.865322 185 187 173
-0.994344 0.886944 1.865322 189 189 177
-1.007092 0.902943 1.898969 0 0 0
-1.010468 0.910662 1.915203 187 187 175
-1.001707 0.907466 1.908482 186 186 178
-0.994942 0.906055 1.905515 190 191 183
-1.004922 0.919958 1.934752 0 0 0
-1.005718 0.925556 1.946526 195 198 191
-1.012245 0.936515 1.969575 192 197 190
-1.015274 0.944339 1.986029 189 194 187
-1.013633 0.690039 1.442920 190 193 184
-0.985849 0.673745 1.408849 194 197 190
-1.001699 0.687261 1.437112 0 0 0
-1.017066 0.700551 1.464902 197 200 193
-1.015825 0.702461 1.468895 192 197 190
-1.011811 0.702461 1.468895 184 189 182
-0.961348 0.670084 1.401194 186 189 178
-1.002610 0.701639 1.467177 0 0 0
-1.011079 0.710407 1.485511 188 190 176
-1.017202 0.717590 1.500532 0 0 0
-1.007852 0.713871 1.492756 187 188 174
-1.003773 0.713871 1.492756 189 190 176
-0.995410 0.710812 1.486360 187 189 176
-1.011348 0.725152 1.516346 0 0 0
-1.011083 0.727945 1.522185 189 195 185
-1.008240 0.728896 1.524175 191 196 189
-0.990443 0.719000 1.503481 194 199 192
-0.995969 0.726024 1.518167 192 197 190
-0.991821 0.726024 1.518167 192 197 190
-0.996288 0.732357 1.531410 192 193 185
-1.006610 0.743065 1.553803 0 0 0
-0.997393 0.739381 1.546098 189 191 180
-0.995773 0.741320 1.550153 190 192 181
-1.007555 0.753295 1.575195 191 193 182
-1.013746 0.761176 1.591674 0 0 0
-1.009397 0.761176 1.591674 192 195 186
-1.008047 0.763447 1.596424 189 192 185
-1.001975 0.762147 1.593704 190 195 188
-1.002760 0.766074 1.601915 188 193 186
-1.013092 0.777361 1.625517 0 0 0
-0.996888 0.768296 1.606561 134 139 132
-1.010873 0.782520 1.636305 0 0 0
-1.006402 0.782520 1.636305 199 201 196
-0.996189 0.778035 1.626928 193 194 189
-1.003371 0.787157 1.646003 193 196 189
-0.997968 0.786444 1.644512 193 196 189
-1.008236 0.798130 1.668947 0 0 0
-1.014404 0.806661 1.686786 192 195 188
-1.005319 0.803085 1.679309 190 193 186
-1.002724 0.804686 1.682656 192 195 188
-1.002346 0.808088 1.689770 192 193 185
-0.997729 0.808088 1.689770 191 193 182
-0.996733 0.811035 1.695932 192 190 175
-1.001731 0.818909 1.712398 182 181 163
-0.986210 0.810004 1.693777 182 179 160
-0.991936 0.818549 1.711644 186 183 164
-0.984408 0.816186 1.706703 186 184 169
-1.004721 0.836992 1.750210 0 0 0
-1.001888 0.838624 1.753623 185 185 175
-1.007200 0.847122 1.771393 0 0 0
-1.007542 0.851502 1.780552 190 191 183
-1.002676 0.851502 1.780552 188 189 181
-0.997559 0.851287 1.780102 183 184 176
-1.001372 0.858729 1.795663 191 192 184
-1.002868 0.864246 1.807201 193 194 186
-0.985822 0.853760 1.785274 192 193 185
-0.999354 0.869784 1.818780 0 0 0
-0.985407 0.861932 1.802361 187 190 181
-1.010704 0.888499 1.857915 0 0 0
-1.016401 0.898018 1.877820 180 182 171
-1.007088 0.894304 1.870055 187 191 177
-1.011965 0.903219 1.888695 187 191 177
-1.003640 0.900380 1.882759 192 194 183
-0.998495 0.900380 1.882759 188 189 181
-1.008433 0.914051 1.911345 190 191 183
-0.998678 0.909921 1.902711 189 190 184
-1.004147 0.919693 1.923144 191 192 186
-1.004431 0.924793 1.933808 194 197 190
-1.005314 0.930501 1.945745 194 197 190
-0.998763 0.929353 1.943344 192 197 190
-0.998358 0.933941 1.952939 191 196 189
-1.014563 0.954201 1.995303 0 0 0
0.017794 0.069327 0.144967 221 229 231
-1.000085 0.684705 1.423634 190 193 184
-0.998611 0.686366 1.427087 195 198 189
-0.968414 0.668221 1.389358 195 198 189
-1.009695 0.699447 1.454285 0 0 0
-1.006608 0.700064 1.455567 192 198 188
-0.965177 0.673913 1.401194 171 177 165
-0.961348 0.673913 1.401194 187 191 177
-0.961944 0.677027 1.407669 188 190 177
-1.003190 0.708891 1.473920 0 0 0
-1.010728 0.717097 1.490982 189 191 178
-1.005145 0.716022 1.488747 190 192 179
-1.004407 0.718404 1.493698 192 194 181
-1.000325 0.718404 1.493698 191 193 182
-0.992205 0.715492 1.487644 190 193 184
-1.000689 0.724578 1.506536 189 194 187
-1.005886 0.731349 1.520615 194 199 192
-0.999875 0.729995 1.517799 192 197 190
-0.995969 0.730172 1.518167 192 197 190
-1.003722 0.738934 1.536385 192 195 188
-0.997689 0.737577 1.533564 192 192 182
-0.999528 0.742054 1.542872 188 188 178
-1.003004 0.747788 1.554795 191 188 179
-0.981288 0.734710 1.527603 193 193 183
-0.982891 0.739054 1.536635 191 191 181
-1.021431 0.771328 1.603739 0 0 0
-1.017048 0.771328 1.603739 193 193 185
-1.004547 0.765144 1.590880 193 194 186
-1.004724 0.768605 1.598076 192 195 186
-1.024475 0.787135 1.636604 0 0 0
-1.013092 0.781802 1.625517 183 189 179
-1.026233 0.795431 1.653853 189 195 185
-1.021593 0.795336 1.653656 182 187 180
-1.004033 0.785139 1.632454 124 126 121
-0.999573 0.785139 1.632454 195 197 192
-0.991607 0.782374 1.626704 188 193 187
-0.992210 0.786375 1.635023 191 193 188
-1.006740 0.801499 1.666470 0 0 0
-1.022316 0.817598 1.699942 0 0 0
-1.018461 0.818233 1.701263 189 190 182
-1.007457 0.813104 1.690599 191 192 184
-1.001786 0.812251 1.688826 189 191 180
-0.999120 0.813839 1.692127 191 191 179
-0.994496 0.813839 1.692127 188 186 171
-1.001731 0.823588 1.712398 180 177 160
-0.983468 0.812368 1.689068 179 176 157
-1.000216 0.834030 1.734109 182 179 162
-0.996479 0.834869 1.735853 180 178 165
-1.003065 0.844406 1.755683 193 193 181
-1.013524 0.857312 1.782516 0 0 0
-1.009500 0.858032 1.784013 188 188 178
-1.002215 0.855973 1.779733 184 184 174
-0.997352 0.855973 1.779733 188 188 180
-0.998193 0.860893 1.789961 189 190 182
-0.988302 0.856560 1.780952 193 194 186
-0.994219 0.865952 1.800480 0 0 0
