# .PCD v0.7 - Point Cloud Data file format
VERSION 0.7
FIELDS x y z rgb
SIZE 4 4 4 4
TYPE F F F F
COUNT 1 1 1 1
WIDTH 1288
HEIGHT 1
VIEWPOINT 0 0 0 1 0 0 0
POINTS 1288
DATA ascii
-0.952288 0.375155 1.417247 151 159 144
-0.952511 0.376773 1.423359 151 159 146
-0.952047 0.378132 1.428491 148 154 144
-0.948782 0.378384 1.429444 145 151 141
-0.943896 0.377989 1.427954 147 153 143
-0.940000 0.377989 1.427954 148 154 144
-0.938963 0.379144 1.432316 147 153 143
-0.939140 0.380801 1.438575 146 153 145
-0.940759 0.383058 1.447103 146 153 145
-0.942953 0.385570 1.456592 148 154 144
-0.943029 0.387233 1.462876 147 153 143
-0.941414 0.388213 1.466578 146 151 144
-0.938009 0.388461 1.467513 145 150 144
-0.936927 0.389676 1.472105 146 149 142
-0.935082 0.390584 1.475532 142 147 140
-0.932661 0.391257 1.478076 143 150 142
-0.928627 0.391257 1.478076 141 149 138
-0.928324 0.392835 1.484039 139 147 136
-0.928423 0.394598 1.490699 142 150 139
-0.926931 0.395698 1.494854 138 146 133
-0.925584 0.396870 1.499280 137 145 130
-0.925701 0.398682 1.506126 133 142 125
-0.925166 0.400228 1.511968 129 138 121
-0.922606 0.400909 1.514538 124 133 116
-0.921361 0.402169 1.519300 124 133 114
-0.919708 0.403262 1.523430 111 118 100
-0.916748 0.403789 1.525421 42 39 24
-0.913590 0.404234 1.527101 56 50 34
-0.908833 0.403972 1.526109 63 56 40
-0.904668 0.403972 1.526109 67 53 40
-0.902624 0.404923 1.529703 66 50 37
-0.899639 0.405459 1.531727 64 50 37
-0.897609 0.406432 1.535405 60 47 31
-0.892656 0.406085 1.534093 64 51 35
-0.888270 0.405994 1.533749 69 58 40
-0.884065 0.405985 1.533714 67 56 38
-0.881141 0.406566 1.535911 67 54 35
-0.875820 0.406042 1.533932 73 58 37
-0.871669 0.406059 1.533994 71 56 35
-0.868438 0.406506 1.535683 71 56 37
-0.865121 0.406917 1.537234 69 56 40
-0.861910 0.407381 1.538991 65 52 35
-0.856698 0.406901 1.537175 63 50 33
-0.852471 0.406885 1.537116 67 54 38
-0.847386 0.406458 1.535502 65 49 34
-0.844793 0.407228 1.538411 67 54 38
-0.842519 0.408160 1.541932 59 47 31
-0.837951 0.407985 1.541269 59 50 35
-0.832544 0.407397 1.539049 58 49 34
-0.828345 0.407397 1.539049 57 50 34
-0.822341 0.406505 1.535680 54 47 31
-0.818090 0.406475 1.535566 54 47 31
-0.814668 0.406859 1.537016 53 46 30
-0.810989 0.407117 1.537993 52 45 27
-0.806426 0.406933 1.537296 50 43 25
-0.802755 0.407198 1.538299 52 43 26
-0.797938 0.406883 1.537107 50 41 24
-0.795471 0.407768 1.540452 51 42 27
-0.789963 0.407096 1.537912 52 43 28
-0.786682 0.407570 1.539705 52 43 28
-0.781481 0.407050 1.537737 49 40 25
-0.778996 0.407945 1.541121 50 41 26
-0.775427 0.408281 1.542388 53 44 29
-0.771850 0.408615 1.543651 51 42 27
-0.767110 0.408334 1.542591 54 47 31
-0.762431 0.408083 1.541640 51 44 28
-0.758974 0.408486 1.543165 49 43 27
-0.754909 0.408566 1.543464 53 47 31
-0.750341 0.408371 1.542730 52 46 30
-0.747422 0.409078 1.545400 52 45 29
-0.745159 0.410154 1.549464 49 42 26
-0.741534 0.410487 1.550724 47 40 24
-0.735946 0.409733 1.547873 49 42 26
-0.731837 0.409796 1.548114 52 45 29
-0.728791 0.410461 1.550623 47 40 24
-0.724848 0.410623 1.551238 47 40 24
-0.720814 0.410737 1.551666 48 41 25
-0.716897 0.410919 1.552354 49 42 26
-0.712599 0.410883 1.552218 50 44 28
-0.708135 0.410751 1.551718 45 39 23
-0.705016 0.411401 1.554177 52 47 28
-0.702217 0.412248 1.557375 55 48 30
-0.697720 0.412102 1.556824 51 44 28
-0.692040 0.411251 1.553608 50 44 28
-0.687427 0.411028 1.552765 49 43 27
-0.684040 0.411539 1.554698 49 41 28
-0.680287 0.411835 1.555816 51 44 28
-0.676656 0.412210 1.557230 49 41 28
-0.672079 0.412009 1.556472 53 46 28
-0.667791 0.411983 1.556376 53 46 27
-0.663527 0.411973 1.556337 53 46 28
-0.659123 0.411875 1.555965 53 46 28
-0.655166 0.412057 1.556653 51 44 26
-0.651071 0.412154 1.557019 53 46 30
-0.647540 0.412610 1.558744 50 43 27
-0.642854 0.412333 1.557698 53 44 29
-0.638533 0.412288 1.557525 58 49 34
-0.633947 0.412069 1.556700 60 51 36
-0.629988 0.412259 1.557415 55 46 31
-0.625964 0.412407 1.557977 54 45 30
-0.622436 0.412887 1.559789 53 44 29
-0.618214 0.412910 1.559877 54 45 30
-0.613108 0.412339 1.557719 63 54 39
-0.608136 0.411850 1.555872 61 52 37
-0.603860 0.411830 1.555795 65 53 37
-0.599545 0.411782 1.555614 61 49 35
-0.595085 0.411633 1.555052 60 48 34
-0.590754 0.411572 1.554821 59 47 33
-0.586966 0.411891 1.556028 64 52 38
-0.583229 0.412251 1.557387 61 49 35
-0.579559 0.412664 1.558946 64 52 36
-0.575694 0.412943 1.560000 65 54 36
-0.571119 0.412713 1.559132 60 49 31
-0.566038 0.412111 1.556858 57 49 30
-0.560662 0.411284 1.553733 62 51 33
-0.556583 0.411402 1.554180 64 53 35
-0.553306 0.412120 1.556893 64 51 34
-0.550220 0.412993 1.560191 63 47 32
-0.546476 0.413381 1.561657 64 48 33
-0.542247 0.413406 1.561750 61 45 30
-0.538146 0.413530 1.562218 63 47 34
-0.534167 0.413750 1.563048 61 47 34
-0.530069 0.413880 1.563542 62 48 35
-0.525510 0.413650 1.562672 64 50 37
-0.521456 0.413817 1.563301 63 51 37
-0.518205 0.414629 1.566369 62 50 36
-0.515288 0.415724 1.570506 58 49 34
-0.511964 0.416506 1.573459 55 48 32
-0.508472 0.417163 1.575944 46 40 26
-0.505735 0.418458 1.580834 43 40 25
-0.501858 0.418821 1.582208 38 34 22
-0.497944 0.419161 1.583492 33 31 19
-0.490250 0.416297 1.572673 25 25 15
-0.483511 0.414200 1.564750 20 23 14
-0.478813 0.413830 1.563352 14 20 10
-0.476002 0.415099 1.568146 19 24 17
-0.474397 0.417453 1.577037 13 18 11
-0.471898 0.419055 1.583089 10 17 9
-0.467750 0.419209 1.583671 14 21 13
-0.462725 0.418573 1.581268 14 21 13
-0.457923 0.418128 1.579588 7 14 6
-0.453590 0.418107 1.579508 10 17 9
-0.448754 0.417618 1.577660 16 23 15
-0.445490 0.418595 1.581354 92 99 91
-0.449891 0.426866 1.612598 0 0 0
-0.458567 0.439395 1.659930 0 0 0
-0.458917 0.444117 1.677769 79 86 78
-0.455606 0.445356 1.682449 59 66 58
-0.436413 0.430937 1.627979 46 53 45
-0.322765 0.427508 1.615025 9 16 8
-0.316450 0.424946 1.605346 11 18 10
-0.316795 0.431382 1.629658 0 0 0
-0.223416 0.422976 1.597904 24 27 20
-0.218660 0.422211 1.595015 24 27 20
-0.214807 0.423196 1.598734 23 26 19
-0.210638 0.423586 1.600206 22 25 18
-0.206576 0.424211 1.602570 16 21 14
-0.201742 0.423244 1.598917 17 22 15
-0.197746 0.424032 1.601891 16 21 14
-0.193538 0.424389 1.603242 15 20 13
-0.188733 0.423424 1.599595 24 29 22
-0.184074 0.422749 1.597044 17 22 15
-0.179858 0.423083 1.598307 15 20 13
-0.176221 0.424829 1.604903 13 18 11
-0.172386 0.426175 1.609990 12 17 10
-0.168788 0.428191 1.617605 16 19 12
-0.164744 0.429155 1.621246 18 21 14
-0.160549 0.429769 1.623566 18 21 14
-0.156198 0.429988 1.624393 19 22 15
-0.151775 0.430013 1.624488 19 22 13
-0.147201 0.429602 1.622936 17 23 13
-0.141817 0.426728 1.612076 20 25 18
-0.135391 0.420433 1.588297 19 24 17
-0.129928 0.416810 1.574611 20 25 18
-0.125762 0.417246 1.576258 20 23 16
-0.122045 0.419252 1.583833 14 17 10
-0.117498 0.418452 1.580814 21 22 14
-0.113071 0.418033 1.579230 37 34 25
-0.108600 0.417409 1.576871 34 31 22
-0.104124 0.416720 1.574269 39 35 26
-0.099399 0.414925 1.567487 39 35 26
-0.094804 0.413541 1.562259 40 35 29
-0.090164 0.411818 1.555753 40 35 29
-0.085574 0.410167 1.549512 37 33 24
-0.080909 0.407965 1.541196 36 32 23
-0.076365 0.406164 1.534393 40 36 27
-0.071272 0.401067 1.515137 41 37 26
-0.065985 0.394180 1.489119 42 38 27
-0.060990 0.388252 1.466724 39 35 24
-0.056548 0.385257 1.455408 40 36 27
-0.052306 0.383271 1.447906 36 33 24
-0.048224 0.382236 1.443997 31 31 21
-0.044138 0.380974 1.439231 30 30 20
-0.040124 0.380158 1.436147 32 32 22
-0.036191 0.380010 1.435589 29 31 20
-0.031974 0.376480 1.422253 30 30 20
-0.027990 0.375094 1.417017 33 33 25
-0.024071 0.374291 1.413981 28 29 21
-0.020221 0.374453 1.414595 27 28 20
-0.016348 0.374141 1.413416 25 26 18
-0.012481 0.373849 1.412312 27 28 20
-0.008615 0.373307 1.410264 22 22 14
-0.004770 0.373602 1.411379 23 23 15
-0.000918 0.373340 1.410391 22 19 12
0.002934 0.373844 1.412295 29 24 20
0.006788 0.373815 1.412185 23 18 14
0.010658 0.374416 1.414455 20 21 15
0.014509 0.374191 1.413605 18 21 14
0.018352 0.373899 1.412503 15 22 14
0.022184 0.373517 1.411059 12 19 11
0.026043 0.373636 1.411507 13 18 11
0.029901 0.373720 1.411826 14 19 12
0.033773 0.373936 1.412642 14 19 12
0.037629 0.373943 1.412668 15 20 13
0.041661 0.375545 1.418720 14 19 12
0.045519 0.375429 1.418283 9 16 8
0.049357 0.375187 1.417369 15 22 14
0.053205 0.375047 1.416840 11 18 10
0.057006 0.374623 1.415237 13 20 12
0.060852 0.374520 1.414848 16 21 14
0.064798 0.375018 1.416729 18 23 16
0.068913 0.376378 1.421866 16 21 14
0.073078 0.377851 1.427431 16 21 14
0.077437 0.380127 1.436031 18 23 16
0.081746 0.381953 1.442927 13 18 11
0.085949 0.383137 1.447402 16 21 14
0.089986 0.383506 1.448796 16 21 14
0.094088 0.384114 1.451093 12 17 10
0.098217 0.384778 1.453600 13 18 11
0.102446 0.385768 1.457339 9 16 8
0.106697 0.386761 1.461091 9 16 8
0.110715 0.386868 1.461495 9 16 9
0.114035 0.384616 1.452987 29 38 33
0.117123 0.381756 1.442185 106 117 111
0.120676 0.380550 1.437627 106 117 113
0.125090 0.382051 1.443299 93 104 100
0.130053 0.385084 1.454758 87 98 92
0.134529 0.386539 1.460252 81 92 86
0.138920 0.387672 1.464534 73 84 76
0.143470 0.389175 1.470212 72 83 77
0.147946 0.390400 1.474837 76 87 79
0.152504 0.391771 1.480017 76 87 79
0.156689 0.392138 1.481404 77 88 80
0.161174 0.393215 1.485475 80 91 83
0.165810 0.394603 1.490719 76 86 78
0.170618 0.396322 1.497213 57 67 59
0.174820 0.396587 1.498210 61 67 63
0.179025 0.396844 1.499183 54 60 56
0.183105 0.396822 1.499099 29 35 33
0.187349 0.397147 1.500328 24 30 30
0.191360 0.396974 1.499672 23 29 27
0.195281 0.396626 1.498359 25 29 30
0.199113 0.396116 1.496434 25 29 30
0.203470 0.396649 1.498445 25 29 30
0.207437 0.396415 1.497563 27 31 34
0.211472 0.396319 1.497200 24 29 32
0.215570 0.396343 1.497290 26 32 32
0.219840 0.396675 1.498542 29 35 35
0.223438 0.395804 1.495255 32 38 38
0.226832 0.394610 1.490744 25 34 31
0.230523 0.393967 1.488312 36 47 43
0.234133 0.393209 1.485452 105 114 109
0.238712 0.394076 1.488726 99 110 104
0.243344 0.395002 1.492223 85 95 86
0.248396 0.396565 1.498130 80 92 82
0.253447 0.398079 1.503847 80 92 82
0.258197 0.399078 1.507622 79 92 82
0.262496 0.399359 1.508685 79 92 82
0.265979 0.398410 1.505098 77 90 80
0.269785 0.397965 1.503418 78 91 81
0.273866 0.397935 1.503303 77 89 79
0.279987 0.400824 1.514218 76 87 79
0.285995 0.403471 1.524220 82 92 84
0.290725 0.404265 1.527217 82 92 84
0.295437 0.405011 1.530037 79 86 79
0.299166 0.404408 1.527757 67 73 69
0.302358 0.403106 1.522838 26 30 29
0.306573 0.403184 1.523133 26 27 29
0.310746 0.403205 1.523214 23 27 28
0.314567 0.402776 1.521593 24 28 31
0.319178 0.403356 1.523785 24 28 31
0.323917 0.404081 1.526520 24 29 32
0.328586 0.404701 1.528866 26 32 32
0.333811 0.405981 1.533700 26 35 34
0.337298 0.405143 1.530534 37 43 43
0.340605 0.404111 1.526637 38 44 44
0.345333 0.404770 1.529126 41 47 47
0.349350 0.404590 1.528446 43 52 51
0.353272 0.404305 1.527368 49 60 56
0.358502 0.405507 1.531910 105 116 112
0.364363 0.407386 1.539006 95 106 100
0.369257 0.408154 1.541908 93 103 95
0.374941 0.409767 1.548002 95 105 97
0.380422 0.411126 1.553136 91 101 93
0.385724 0.412263 1.557430 91 101 93
0.393717 0.416220 1.572381 93 103 95
0.399962 0.418263 1.580099 94 105 97
0.405229 0.419252 1.583834 88 99 93
0.410286 0.420004 1.586675 73 82 81
0.414523 0.419910 1.586322 61 69 71
0.419364 0.420424 1.588262 43 48 52
0.424131 0.420854 1.589887 35 40 44
0.429474 0.421840 1.593612 33 38 42
0.433738 0.421759 1.593304 31 36 40
0.437705 0.421392 1.591918 33 38 42
0.441982 0.421328 1.591676 29 34 38
0.447662 0.422590 1.596444 33 38 42
0.453319 0.423805 1.601037 36 41 45
0.457866 0.423971 1.601660 38 46 49
0.466285 0.427684 1.615688 73 81 84
-0.955658 0.365520 1.366758 142 148 136
-0.953959 0.366299 1.369672 152 158 146
-0.955051 0.368161 1.376633 149 157 144
-0.954994 0.369593 1.381988 150 158 145
-0.945433 0.367343 1.373576 146 154 139
-0.948244 0.369902 1.383143 123 132 115
-0.952693 0.373122 1.395185 137 144 128
-0.948886 0.373122 1.395185 144 152 137
-0.953559 0.376470 1.407704 147 155 140
-0.955371 0.378711 1.416084 147 155 140
-0.951934 0.378881 1.416720 153 159 147
-0.949047 0.379273 1.418183 147 153 143
-0.945689 0.379478 1.418951 150 156 146
-0.943541 0.380173 1.421548 145 151 141
-0.938692 0.379780 1.420081 144 150 140
-0.939266 0.381588 1.426840 150 155 148
-0.935373 0.381588 1.426840 150 155 148
-0.936299 0.383563 1.434224 147 154 146
-0.937878 0.385822 1.442672 146 153 145
-0.939502 0.388119 1.451261 148 155 147
-0.941709 0.390677 1.460828 148 156 145
-0.940716 0.391925 1.465492 143 151 140
-0.938848 0.392816 1.468825 143 151 140
-0.936448 0.393492 1.471352 141 149 138
-0.934072 0.394184 1.473939 145 153 142
-0.930656 0.394440 1.474899 141 149 138
-0.926631 0.394440 1.474899 142 150 139
-0.925824 0.395816 1.480042 140 148 135
-0.926559 0.397866 1.487707 140 148 135
-0.926931 0.399777 1.494854 139 147 134
-0.924714 0.400584 1.497869 133 142 125
-0.924809 0.402404 1.504674 130 139 122
-0.926151 0.404785 1.513578 125 132 116
-0.923372 0.405378 1.515797 126 135 116
-0.920999 0.406156 1.518704 123 132 113
-0.919046 0.407126 1.522333 110 117 99
-0.916115 0.407670 1.524368 40 43 26
-0.912849 0.408070 1.525862 53 51 36
-0.908917 0.408174 1.526252 60 53 37
-0.904753 0.408174 1.526252 64 50 37
-0.902880 0.409213 1.530137 63 49 36
-0.901448 0.410462 1.534807 62 49 33
-0.898245 0.410913 1.536492 66 50 35
-0.892790 0.410333 1.534324 63 50 33
-0.886822 0.409510 1.531248 65 54 36
-0.882049 0.409235 1.530217 63 52 34
-0.878812 0.409672 1.531853 63 50 33
-0.874236 0.409487 1.531159 64 51 34
-0.870704 0.409791 1.532297 66 53 36
-0.867116 0.410071 1.533345 68 57 39
-0.862054 0.409654 1.531785 68 56 40
-0.859194 0.410284 1.534141 62 49 33
-0.855410 0.410477 1.534864 62 49 33
-0.853380 0.411518 1.538756 63 51 37
-0.847927 0.410910 1.536482 57 45 31
-0.844462 0.411265 1.537808 56 47 32
-0.840699 0.411477 1.538602 61 52 37
-0.837457 0.411947 1.540360 60 53 37
-0.832476 0.411563 1.538922 59 52 36
-0.828276 0.411563 1.538922 59 52 36
-0.823446 0.411247 1.537744 57 50 34
-0.819289 0.411267 1.537818 58 51 33
-0.815491 0.411468 1.538568 57 50 32
-0.812000 0.411827 1.539910 54 47 29
-0.807212 0.411528 1.538794 54 47 29
-0.803894 0.411980 1.540483 56 47 30
-0.798898 0.411571 1.538955 53 44 29
-0.796201 0.412350 1.541866 53 41 27
-0.791689 0.412191 1.541273 52 43 28
-0.788528 0.412738 1.543317 52 43 28
-0.783640 0.412382 1.541986 49 40 25
-0.779921 0.412640 1.542952 54 45 30
-0.775939 0.412762 1.543406 54 42 28
-0.771725 0.412760 1.543401 54 45 30
-0.766346 0.412133 1.541054 55 48 32
-0.762381 0.412263 1.541539 56 49 33
-0.758438 0.412406 1.542076 49 43 27
-0.754657 0.412639 1.542948 52 45 29
-0.749844 0.412308 1.541709 50 43 27
-0.747511 0.413345 1.545585 50 43 27
-0.746136 0.414925 1.551496 49 43 29
-0.743194 0.415647 1.554196 52 46 32
-0.737506 0.414833 1.551152 49 43 29
-0.732740 0.414532 1.550024 49 43 29
-0.728195 0.414353 1.549355 45 37 24
-0.724331 0.414561 1.550133 43 35 22
-0.720301 0.414676 1.550563 47 41 25
-0.717755 0.415652 1.554213 49 43 27
-0.713607 0.415706 1.554415 48 42 26
-0.708435 0.415161 1.552376 45 42 25
-0.704752 0.415487 1.553594 49 43 27
-0.702181 0.416476 1.557295 53 46 30
-0.698013 0.416525 1.557477 51 44 28
-0.692571 0.415809 1.554800 54 47 31
-0.687458 0.415283 1.552834 52 46 30
-0.684602 0.416123 1.555974 54 47 31
-0.680611 0.416279 1.556557 51 44 28
-0.677011 0.416677 1.558047 52 45 29
-0.671941 0.416170 1.556151 51 44 26
-0.667498 0.416048 1.555695 53 44 27
-0.663037 0.415913 1.555187 55 47 28
-0.658169 0.415518 1.553713 53 46 28
-0.654198 0.415689 1.554352 55 48 32
-0.650253 0.415879 1.555062 48 38 26
-0.647224 0.416660 1.557984 52 42 30
-0.642970 0.416659 1.557979 55 46 31
-0.638872 0.416759 1.558352 61 49 35
-0.634724 0.416827 1.558609 53 46 30
-0.630223 0.416664 1.557996 56 49 33
-0.625598 0.416415 1.557066 53 46 30
-0.621476 0.416500 1.557384 52 43 28
-0.617563 0.416727 1.558234 54 47 31
-0.612856 0.416418 1.557078 55 46 31
-0.608881 0.416605 1.557778 57 48 31
-0.604040 0.416199 1.556257 65 53 37
-0.599750 0.416169 1.556144 64 52 36
-0.594554 0.415505 1.553665 64 50 37
-0.590888 0.415909 1.555174 60 48 34
-0.587128 0.416252 1.556456 61 49 35
-0.583553 0.416732 1.558251 62 50 36
-0.579482 0.416862 1.558738 61 52 35
-0.575675 0.417186 1.559947 60 52 33
-0.570924 0.416825 1.558599 61 53 34
-0.566496 0.416696 1.558118 61 53 34
-0.561069 0.415825 1.554859 64 53 35
-0.557240 0.416134 1.556016 63 51 35
-0.553438 0.416469 1.557266 62 50 34
-0.550288 0.417302 1.560382 60 46 35
-0.546742 0.417846 1.562417 63 49 36
-0.542574 0.417920 1.562693 60 46 33
-0.538017 0.417692 1.561843 61 47 34
-0.533525 0.417512 1.561169 59 45 32
-0.528817 0.417159 1.559847 59 45 32
-0.524650 0.417230 1.560115 60 46 33
-0.520825 0.417577 1.561411 60 48 34
-0.518963 0.419516 1.568661 60 48 34
-0.516213 0.420763 1.573325 57 48 33
-0.512915 0.421581 1.576384 52 44 31
-0.508258 0.421286 1.575281 44 38 26
-0.505289 0.422398 1.579438 40 36 24
-0.502022 0.423278 1.582727 35 33 21
-0.498716 0.424138 1.585946 29 29 19
-0.489881 0.420272 1.571488 24 25 17
-0.483460 0.418426 1.564585 20 23 14
-0.478882 0.418157 1.563578 16 19 10
-0.476188 0.419542 1.568758 16 21 14
-0.474624 0.421958 1.577791 16 23 15
-0.472640 0.424040 1.585577 11 18 10
-0.469602 0.425207 1.589940 15 22 14
-0.464123 0.424165 1.586046 19 24 17
-0.459090 0.423515 1.583613 10 13 6
-0.454889 0.423627 1.584032 14 17 10
-0.451712 0.424703 1.588057 28 33 26
-0.454038 0.431025 1.611697 107 114 106
-0.214733 0.436271 1.631312 35 38 31
-0.208653 0.432893 1.618680 39 44 37
-0.201587 0.427279 1.597689 31 38 30
-0.198534 0.430110 1.608275 29 36 28
-0.195001 0.432005 1.615360 30 37 29
-0.190228 0.431177 1.612265 22 29 21
-0.185044 0.429357 1.605458 21 26 19
-0.180695 0.429432 1.605739 18 23 16
-0.176896 0.430853 1.611052 13 18 11
-0.173136 0.432441 1.616989 11 16 9
-0.169552 0.434563 1.624925 12 17 10
-0.165650 0.435965 1.630169 12 17 10
-0.161767 0.437492 1.635878 16 21 14
-0.157092 0.436907 1.633689 12 17 10
-0.152345 0.436080 1.630598 15 20 13
-0.146897 0.433134 1.619581 20 25 18
-0.133436 0.418633 1.565361 23 28 21
-0.128388 0.416118 1.555954 25 30 23
-0.125212 0.419702 1.569356 24 29 22
-0.122275 0.424374 1.586827 18 21 14
-0.117684 0.423435 1.583316 13 16 9
-0.113428 0.423673 1.584206 21 22 14
-0.108811 0.422532 1.579938 28 28 20
-0.104367 0.421996 1.577936 31 28 21
-0.099552 0.419848 1.569902 36 31 25
-0.094994 0.418641 1.565391 34 29 23
-0.090493 0.417583 1.561434 36 31 25
-0.085979 0.416355 1.556840 35 30 24
-0.081310 0.414213 1.548833 31 28 21
-0.076777 0.412565 1.542670 33 30 21
-0.072180 0.410361 1.534427 32 29 20
-0.067357 0.406524 1.520082 37 34 25
-0.062297 0.400660 1.498154 35 35 25
-0.057388 0.395012 1.477036 32 32 22
-0.052810 0.390956 1.461871 31 33 22
-0.048458 0.388050 1.451002 28 31 20
-0.044261 0.385978 1.443255 27 29 18
-0.040223 0.385026 1.439698 25 28 17
-0.036262 0.384675 1.438382 24 27 18
-0.032316 0.384427 1.437454 26 28 17
-0.028293 0.383072 1.432389 26 29 20
-0.024317 0.382015 1.428438 25 26 18
-0.020398 0.381612 1.426932 24 25 17
-0.016497 0.381459 1.426357 24 25 17
-0.012574 0.380520 1.422846 18 19 13
-0.008668 0.379499 1.419030 18 19 13
-0.004797 0.379563 1.419269 20 21 13
-0.000925 0.380073 1.421177 19 20 12
0.002954 0.380257 1.421865 22 21 16
0.006826 0.379776 1.420063 25 24 19
0.010704 0.379905 1.420548 23 24 18
0.014592 0.380206 1.421673 16 19 12
0.018465 0.380078 1.421193 15 22 14
0.022305 0.379427 1.418759 14 21 13
0.026161 0.379199 1.417907 16 21 14
0.030042 0.379351 1.418477 15 20 13
0.033951 0.379774 1.420057 14 19 12
0.037855 0.380073 1.421177 14 19 12
0.041719 0.379944 1.420695 14 19 12
0.045564 0.379677 1.419694 14 19 12
0.049392 0.379322 1.418368 17 22 15
0.053249 0.379231 1.418026 15 20 13
0.057096 0.379077 1.417450 14 19 12
0.060966 0.379092 1.417506 16 21 14
0.064958 0.379818 1.420221 18 23 16
0.069215 0.381921 1.428086 19 24 17
0.073549 0.384208 1.436637 21 26 19
0.077920 0.386441 1.444987 18 23 16
0.082162 0.387854 1.450271 15 18 11
0.086275 0.388553 1.452884 18 21 14
0.090383 0.389171 1.455194 14 17 10
0.094482 0.389700 1.457173 15 18 11
0.098784 0.390989 1.461992 10 15 8
0.103136 0.392368 1.467148 10 17 9
0.107463 0.393552 1.471576 7 14 6
0.111277 0.392841 1.468919 9 16 9
0.114421 0.389897 1.457908 43 52 47
0.117452 0.386775 1.446237 116 127 121
0.121137 0.385944 1.443130 108 119 113
0.125388 0.386910 1.446739 95 106 100
0.130134 0.389297 1.455665 91 102 96
0.134433 0.390245 1.459211 87 100 93
0.139192 0.392436 1.467404 82 95 88
0.143909 0.394391 1.474714 85 98 91
0.148613 0.396202 1.481486 83 96 89
0.152856 0.396724 1.483436 84 95 87
0.157282 0.397677 1.487002 82 93 85
0.162067 0.399472 1.493714 82 91 86
0.166996 0.401522 1.501377 77 83 79
0.171737 0.403033 1.507028 42 48 46
0.175970 0.403310 1.508063 25 31 29
0.180327 0.403851 1.510087 24 30 30
0.184645 0.404285 1.511708 23 29 29
0.189393 0.405618 1.516694 22 28 28
0.193690 0.405949 1.517933 22 28 28
0.198211 0.406728 1.520843 23 29 29
0.202474 0.406954 1.521689 22 28 28
0.207240 0.408163 1.526208 23 28 31
0.211500 0.408347 1.526897 23 28 31
0.215972 0.408926 1.529063 24 29 32
0.220440 0.409474 1.531113 23 29 29
0.224916 0.410017 1.533144 78 87 84
0.229035 0.409902 1.532713 92 103 97
0.232547 0.408724 1.528309 59 72 65
0.236279 0.407966 1.525472 65 78 71
0.240092 0.407373 1.523257 87 98 92
0.244844 0.408367 1.526973 89 100 94
0.249725 0.409538 1.531351 81 92 86
0.254695 0.410814 1.536124 82 92 84
0.259302 0.411474 1.538589 84 94 86
0.263940 0.412159 1.541153 80 92 82
0.268753 0.413094 1.544646 84 96 86
0.272795 0.412832 1.543668 81 94 84
0.276758 0.412460 1.542276 81 94 84
0.280965 0.412457 1.542266 82 95 85
0.286488 0.414359 1.549377 72 83 75
0.292308 0.416628 1.557862 64 75 69
0.297612 0.418108 1.563396 67 73 71
0.302203 0.418557 1.565077 65 71 69
0.306454 0.418530 1.564974 65 71 69
0.310795 0.418625 1.565329 29 35 33
0.315008 0.418548 1.565040 27 31 32
0.319627 0.419005 1.566750 25 29 30
0.323936 0.419048 1.566912 25 29 30
0.328418 0.419311 1.567895 26 30 33
0.332817 0.419463 1.568465 25 30 33
0.337697 0.420210 1.571255 26 32 32
0.341798 0.419981 1.570400 45 51 51
0.345944 0.419812 1.569767 82 88 86
0.350359 0.419969 1.570357 77 86 83
0.355375 0.420834 1.573591 72 81 78
0.359550 0.420695 1.573070 79 85 83
0.364174 0.421078 1.574504 75 84 81
0.368983 0.421665 1.576696 86 95 92
0.373821 0.422270 1.578959 88 97 92
0.378330 0.422493 1.579795 88 98 90
0.382564 0.422408 1.579475 86 96 88
0.388248 0.423908 1.585085 86 96 88
0.394173 0.425636 1.591544 91 101 93
0.399437 0.426620 1.595225 91 101 93
0.403793 0.426623 1.595235 91 102 96
0.407614 0.426066 1.593154 56 67 61
0.412227 0.426342 1.594185 41 50 49
0.416668 0.426434 1.594530 28 36 38
0.421354 0.426773 1.595798 27 32 36
0.425512 0.426577 1.595063 29 34 38
0.430169 0.426878 1.596191 26 31 35
0.434914 0.427261 1.597623 31 36 40
0.439993 0.427961 1.600239 27 32 36
0.446015 0.429555 1.606201 35 40 44
0.455776 0.434684 1.625378 0 0 0
-0.951118 0.367495 1.360265 148 154 144
-0.947535 0.367545 1.360449 151 159 148
-0.950690 0.370219 1.370348 150 158 147
-0.946471 0.370032 1.369654 147 155 144
-0.945433 0.371091 1.373576 147 155 142
-0.948834 0.373908 1.384003 106 114 101
-0.950915 0.376226 1.392582 147 155 140
-0.947115 0.376226 1.392582 144 152 137
-0.953893 0.380445 1.408198 0 0 0
-0.953180 0.381698 1.412837 151 159 146
-0.949835 0.381903 1.413596 153 161 150
-0.943839 0.381040 1.410400 151 159 148
-0.942266 0.381962 1.413814 148 156 145
-0.941238 0.383114 1.418078 149 157 146
-0.941002 0.384599 1.423575 150 158 147
-0.942585 0.386844 1.431882 150 157 149
-0.938678 0.386844 1.431882 147 154 146
-0.938879 0.388544 1.438175 144 151 143
-0.938601 0.390059 1.443784 145 152 144
-0.940735 0.392594 1.453167 143 150 142
-0.942925 0.395174 1.462715 145 153 142
-0.939688 0.395491 1.463891 147 155 144
-0.936400 0.395790 1.464995 148 156 145
-0.934262 0.396579 1.467918 144 152 141
-0.936559 0.399266 1.477863 145 153 142
-0.935624 0.400592 1.482773 144 152 141
-0.931578 0.400592 1.482773 141 149 138
-0.930366 0.401816 1.487303 142 150 137
-0.928967 0.402970 1.491574 140 148 133
-0.925982 0.403443 1.493323 137 145 130
-0.924714 0.404671 1.497869 135 144 125
-0.925074 0.406626 1.505106 130 137 119
-0.925191 0.408491 1.512010 128 136 115
-0.922901 0.409305 1.515023 125 133 112
-0.920009 0.409859 1.517071 115 124 105
-0.917657 0.410659 1.520032 115 122 104
-0.914524 0.411115 1.521721 31 32 16
-0.911636 0.411686 1.523834 54 51 34
-0.906789 0.411374 1.522678 54 48 32
-0.904149 0.412064 1.525234 60 48 34
-0.899987 0.412064 1.525234 61 47 34
-0.898408 0.413252 1.529632 67 51 38
-0.896966 0.414515 1.534305 67 51 36
-0.892445 0.414359 1.533730 65 49 34
-0.886005 0.413307 1.529837 63 50 34
-0.879931 0.412417 1.526542 62 49 33
-0.876169 0.412608 1.527246 61 47 34
-0.871884 0.412552 1.527039 62 50 36
-0.868743 0.413040 1.528845 66 54 40
-0.864195 0.412860 1.528179 60 51 34
-0.858799 0.412271 1.526002 67 55 39
-0.855013 0.412454 1.526676 60 51 34
-0.852140 0.413080 1.528996 59 50 35
-0.850944 0.414530 1.534364 59 50 35
-0.846950 0.414625 1.534712 58 49 34
-0.842594 0.414542 1.534406 58 49 34
-0.838649 0.414662 1.534849 60 51 36
-0.835465 0.415161 1.536697 55 48 32
-0.831970 0.415509 1.537987 59 52 36
-0.827653 0.415449 1.537764 60 53 37
-0.823457 0.415449 1.537764 57 50 32
-0.819613 0.415628 1.538426 60 53 35
-0.816001 0.415927 1.539532 55 50 31
-0.812412 0.416240 1.540692 53 48 29
-0.807225 0.415734 1.538818 51 46 27
-0.803700 0.416083 1.540110 51 44 28
-0.798491 0.415559 1.538171 47 40 24
-0.795771 0.416332 1.541033 48 41 25
-0.791811 0.416461 1.541509 48 41 25
-0.788519 0.416944 1.543298 49 42 26
-0.783522 0.416527 1.541754 51 44 28
-0.779134 0.416430 1.541395 54 47 31
-0.774876 0.416402 1.541291 53 44 29
-0.771083 0.416626 1.542119 46 39 23
-0.766121 0.416216 1.540602 48 41 25
-0.767209 0.419107 1.551303 48 41 25
-0.762457 0.418821 1.550246 46 40 24
-0.759464 0.419505 1.552776 50 44 28
-0.754749 0.419240 1.551794 47 41 25
-0.751112 0.419573 1.553029 45 39 25
-0.748954 0.420742 1.557354 47 41 27
-0.746328 0.421659 1.560750 50 47 32
-0.741044 0.421077 1.558595 48 45 30
-0.736792 0.421077 1.558597 47 44 27
-0.731921 0.420722 1.557282 49 43 29
-0.728363 0.421122 1.558760 46 43 28
-0.722962 0.420455 1.556291 47 44 29
-0.719682 0.421020 1.558385 46 43 28
-0.714639 0.420555 1.556662 47 44 29
-0.709376 0.419954 1.554438 48 45 30
-0.705419 0.420124 1.555066 54 48 32
-0.702794 0.421093 1.558655 50 44 28
-0.700358 0.422188 1.562709 47 40 24
-0.694847 0.421433 1.559911 52 45 29
-0.690144 0.421160 1.558902 51 44 28
-0.687226 0.421981 1.561939 52 45 29
-0.683601 0.422374 1.563396 49 42 26
-0.679493 0.422472 1.563759 50 43 27
-0.673719 0.421530 1.560271 51 44 28
-0.668968 0.421219 1.559120 50 41 26
-0.664135 0.420852 1.557763 54 45 30
-0.659441 0.420569 1.556716 54 47 31
-0.654896 0.420379 1.556011 53 46 30
-0.651435 0.420886 1.557889 45 39 23
-0.648636 0.421830 1.561383 51 45 29
-0.644642 0.422005 1.562030 54 47 31
-0.640560 0.422124 1.562470 55 46 31
-0.635538 0.421621 1.560607 54 47 31
-0.631556 0.421805 1.561290 55 49 33
-0.626374 0.421186 1.558998 55 48 32
-0.622000 0.421104 1.558696 52 45 29
-0.617308 0.420805 1.557590 53 46 30
-0.613264 0.420947 1.558113 59 50 35
-0.609976 0.421613 1.560580 55 46 29
-0.605802 0.421672 1.560796 60 48 32
-0.601488 0.421634 1.560656 62 50 34
-0.596751 0.421296 1.559406 63 51 35
-0.592100 0.421014 1.558363 61 49 35
-0.588713 0.421634 1.560657 59 47 33
-0.584527 0.421686 1.560851 61 49 35
-0.580326 0.421729 1.561007 59 50 33
-0.575132 0.421045 1.558478 62 53 36
-0.570816 0.420998 1.558303 62 53 36
-0.566619 0.421039 1.558456 58 49 32
-0.562819 0.421378 1.559709 60 51 34
-0.558512 0.421340 1.559568 60 48 34
-0.555358 0.422177 1.562667 58 46 32
-0.550918 0.422042 1.562168 59 45 32
-0.548151 0.423197 1.566443 58 49 34
-0.544126 0.423391 1.567162 56 47 32
-0.539862 0.423401 1.567199 56 47 32
-0.534405 0.422468 1.563745 57 48 33
-0.530119 0.422453 1.563688 56 47 32
-0.526739 0.423166 1.566326 50 40 28
-0.524159 0.424538 1.571404 52 42 30
-0.522508 0.426691 1.579376 53 43 31
-0.519388 0.427671 1.583002 52 44 33
-0.515378 0.427928 1.583953 48 42 30
-0.509724 0.426813 1.579825 39 35 24
-0.506908 0.428076 1.584500 38 35 26
-0.504670 0.429852 1.591076 38 35 26
-0.500883 0.430328 1.592839 27 28 20
-0.491664 0.426105 1.577208 22 23 15
-0.484871 0.423929 1.569153 21 24 17
-0.480167 0.423557 1.567773 17 22 15
-0.476842 0.424405 1.570915 15 22 14
-0.475809 0.427327 1.581729 20 27 19
-0.474565 0.430111 1.592035 21 28 20
-0.472500 0.432196 1.599753 38 45 37
-0.465757 0.430002 1.591630 25 32 24
-0.459675 0.428381 1.585631 10 17 9
-0.455839 0.428843 1.587340 15 22 14
-0.454369 0.431560 1.597398 65 70 63
-0.180463 0.444024 1.643533 15 20 13
-0.174836 0.441144 1.632871 12 19 11
-0.170409 0.441217 1.633143 12 19 11
-0.124467 0.407524 1.508431 22 29 21
-0.120927 0.409478 1.515660 23 28 21
-0.121374 0.425543 1.575128 0 0 0
-0.118035 0.429028 1.588027 13 16 7
-0.113759 0.429248 1.588840 16 17 9
-0.109185 0.428310 1.585368 27 27 19
-0.104716 0.427729 1.583218 28 28 20
-0.099973 0.425927 1.576548 27 27 19
-0.095356 0.424525 1.571360 30 30 22
-0.090817 0.423353 1.567020 32 29 22
-0.086358 0.422459 1.563710 32 29 22
-0.081655 0.420216 1.555410 31 28 21
-0.076933 0.417621 1.545804 29 29 19
-0.072524 0.416524 1.541743 26 26 16
-0.068060 0.414961 1.535959 25 27 16
-0.063446 0.412213 1.525785 28 30 19
-0.058703 0.408184 1.510872 32 33 25
-0.053929 0.403315 1.492851 28 31 22
-0.049322 0.398994 1.476857 23 28 21
-0.044792 0.394592 1.460562 23 26 15
-0.040565 0.392258 1.451923 23 26 15
-0.036457 0.390693 1.446130 20 25 18
-0.032473 0.390242 1.444460 22 25 16
-0.028469 0.389386 1.441292 17 23 13
-0.024489 0.388643 1.438542 19 24 17
-0.020543 0.388249 1.437085 17 23 13
-0.016588 0.387475 1.434218 18 21 12
-0.012637 0.386316 1.429930 17 20 11
-0.008708 0.385124 1.425516 17 20 11
-0.004820 0.385249 1.425978 19 22 13
-0.000930 0.385905 1.428406 19 22 13
0.002969 0.386062 1.428987 17 20 13
0.006861 0.385619 1.427349 22 25 18
0.010757 0.385672 1.427546 22 25 18
0.014669 0.386101 1.429132 16 21 14
0.018557 0.385865 1.428259 14 20 10
0.022438 0.385589 1.427240 17 23 13
0.026299 0.385096 1.425414 14 20 10
0.030227 0.385578 1.427197 14 19 12
0.034099 0.385331 1.426284 15 20 13
0.038027 0.385691 1.427616 15 20 13
0.041898 0.385465 1.426781 15 20 13
0.045763 0.385228 1.425902 14 19 12
0.049581 0.384660 1.423800 16 21 14
0.053477 0.384741 1.424099 12 17 10
0.057437 0.385234 1.425923 17 22 15
0.061412 0.385765 1.427888 22 27 20
0.065449 0.386594 1.430959 22 27 20
0.069757 0.388839 1.439268 23 28 21
0.074165 0.391375 1.448654 23 28 21
0.078457 0.393075 1.454949 15 20 13
0.082653 0.394152 1.458932 17 20 13
0.086876 0.395250 1.462999 19 22 15
0.091147 0.396466 1.467498 14 17 10
0.095391 0.397464 1.471192 11 16 9
0.099691 0.398603 1.475408 9 14 7
0.104055 0.399904 1.480223 10 17 9
0.108325 0.400757 1.483380 8 15 7
0.112022 0.399506 1.478751 11 18 10
0.114947 0.395686 1.464612 62 73 65
0.118037 0.392667 1.453439 118 131 124
0.121688 0.391655 1.449689 100 113 106
0.125911 0.392486 1.452768 95 108 101
0.130322 0.393838 1.457771 93 106 99
0.134621 0.394780 1.461257 86 99 92
0.139247 0.396598 1.467988 92 104 100
0.144158 0.399103 1.477258 93 104 98
0.148804 0.400761 1.483395 96 107 101
0.153264 0.401839 1.487388 90 101 95
0.157707 0.402823 1.491028 90 101 97
0.162470 0.404551 1.497425 93 99 97
0.167371 0.406531 1.504753 94 100 98
0.172047 0.407881 1.509750 43 49 49
0.176597 0.408877 1.513438 27 32 35
0.181054 0.409618 1.516179 22 27 30
0.185555 0.410422 1.519158 23 28 31
0.190222 0.411551 1.523334 21 26 29
0.194620 0.412061 1.525222 22 27 30
0.199398 0.413338 1.529951 22 27 30
0.203998 0.414201 1.533143 20 25 28
0.208797 0.415426 1.537677 23 28 32
0.213214 0.415856 1.539271 19 24 28
0.217725 0.416450 1.541470 20 25 28
0.222587 0.417682 1.546028 20 26 26
0.227330 0.418647 1.549600 49 58 55
0.232034 0.419506 1.552782 121 132 126
0.236246 0.419461 1.552613 86 99 90
0.240640 0.419736 1.553630 78 91 82
0.244759 0.419530 1.552869 78 91 82
0.249088 0.419683 1.553436 77 90 83
0.253907 0.420645 1.556997 78 89 83
0.258572 0.421322 1.559504 79 88 83
0.263357 0.422172 1.562650 82 92 84
0.267995 0.422761 1.564828 79 89 81
0.273036 0.423958 1.569260 76 89 79
0.277520 0.424267 1.570401 76 89 79
0.281876 0.424373 1.570796 75 88 78
0.286034 0.424183 1.570091 74 87 78
0.291006 0.425188 1.573813 36 47 39
0.296034 0.426244 1.577721 21 30 25
0.300739 0.426812 1.579822 23 32 29
0.305662 0.427668 1.582992 19 25 23
0.310733 0.428705 1.586828 21 27 25
0.314928 0.428520 1.586147 18 24 24
0.319231 0.428487 1.586023 21 25 26
0.323772 0.428769 1.587066 22 26 27
0.328512 0.429303 1.589044 20 24 25
0.333194 0.429750 1.590697 22 26 29
0.337686 0.429942 1.591410 21 27 27
0.341922 0.429808 1.590914 23 29 29
0.346167 0.429690 1.590474 44 53 48
0.350471 0.429645 1.590308 113 122 117
0.355041 0.429924 1.591341 99 110 102
0.359849 0.430480 1.593401 85 96 90
0.364219 0.430507 1.593501 83 92 87
0.368871 0.430862 1.594812 81 90 85
0.373334 0.430989 1.595286 83 89 85
0.377444 0.430712 1.594260 89 95 91
0.381410 0.430279 1.592655 80 90 82
0.385165 0.429620 1.590217 83 93 85
0.390672 0.430908 1.594984 80 90 82
0.395489 0.431414 1.596857 83 93 85
0.400736 0.432375 1.600413 85 94 89
0.404777 0.432026 1.599124 79 90 86
0.408720 0.431581 1.597477 25 34 33
0.413028 0.431528 1.597279 21 29 31
0.417459 0.431604 1.597559 20 28 31
0.422188 0.431982 1.598958 26 31 35
0.426484 0.431914 1.598706 30 35 39
0.431466 0.432535 1.601005 32 37 41
0.439612 0.436283 1.614880 40 45 49
0.456220 0.448272 1.659256 0 0 0
-0.950690 0.371040 1.359651 147 153 143
-0.947155 0.371108 1.359903 153 158 151
-0.950371 0.373833 1.369889 148 155 147
-0.945885 0.373538 1.368805 149 156 148
-0.946789 0.375377 1.375545 148 156 145
-0.942275 0.375074 1.374436 105 113 102
-0.943480 0.377055 1.381694 149 157 144
-0.950357 0.381327 1.397349 148 156 143
-0.946544 0.381327 1.397349 151 159 146
-0.948931 0.383835 1.406539 153 161 148
-0.944225 0.383482 1.405247 153 161 150
-0.939533 0.383133 1.403965 148 156 145
-0.939706 0.384772 1.409973 150 158 147
-0.940062 0.386501 1.416308 151 159 148
-0.942621 0.389152 1.426025 149 157 146
-0.944267 0.391448 1.434436 153 161 150
-0.940352 0.391448 1.434436 150 157 149
-0.941222 0.393447 1.441764 149 156 148
-0.937917 0.393712 1.442732 148 155 147
-0.936237 0.394663 1.446218 148 155 147
-0.939866 0.397870 1.457969 142 150 139
-0.939375 0.399352 1.463402 143 151 140
-0.938115 0.400519 1.467679 143 151 140
-0.935060 0.400927 1.469171 147 155 144
-0.936665 0.403345 1.478031 144 152 139
-0.938041 0.405684 1.486603 142 149 141
-0.937281 0.407116 1.491850 142 150 137
-0.933210 0.407116 1.491850 143 151 140
-0.930688 0.407794 1.494337 141 149 134
-0.925739 0.407411 1.492932 138 145 129
-0.924750 0.408774 1.497928 137 144 128
-0.925899 0.411099 1.506448 131 135 118
-0.924807 0.412446 1.511382 129 134 114
-0.924437 0.414127 1.517544 126 134 113
-0.919868 0.413935 1.516838 121 130 111
-0.918646 0.415254 1.521670 115 122 104
-0.914920 0.415447 1.522380 30 33 16
-0.912462 0.416221 1.525216 51 50 32
-0.907662 0.415928 1.524144 58 51 35
-0.904704 0.416481 1.526170 56 44 30
-0.900540 0.416481 1.526170 58 46 32
-0.899709 0.418031 1.531847 66 53 37
-0.897295 0.418855 1.534868 59 43 28
-0.892198 0.418429 1.533306 60 44 29
-0.885381 0.417188 1.528760 60 44 29
-0.878645 0.415974 1.524311 58 42 29
-0.874845 0.416145 1.524938 62 46 33
-0.871103 0.416345 1.525671 64 50 37
-0.868616 0.417150 1.528621 60 51 36
-0.864200 0.417032 1.528188 56 47 32
-0.858567 0.416323 1.525590 63 54 39
-0.854189 0.416218 1.525206 60 53 37
-0.851596 0.416987 1.528021 57 50 34
-0.850006 0.418256 1.532673 59 52 36
-0.846922 0.418799 1.534661 57 50 34
-0.842080 0.418474 1.533470 57 48 33
-0.837571 0.418312 1.532876 55 48 32
-0.836367 0.419807 1.538356 59 52 36
-0.834681 0.421074 1.542999 60 51 36
-0.832525 0.422116 1.546817 60 53 37
-0.828304 0.422116 1.546817 59 54 35
-0.823028 0.421575 1.544836 56 53 34
-0.820063 0.422219 1.547196 54 51 34
-0.817639 0.423150 1.550605 50 47 30
-0.813090 0.422984 1.549998 48 45 28
-0.809206 0.423165 1.550661 49 46 29
-0.804877 0.423114 1.550474 52 49 32
-0.802890 0.424299 1.554818 47 44 27
-0.799234 0.424611 1.555960 46 43 26
-0.794223 0.424203 1.554464 50 47 32
-0.788619 0.423471 1.551782 48 45 30
-0.782385 0.422391 1.547827 46 43 28
-0.778894 0.422789 1.549285 44 41 26
-0.775702 0.423354 1.551355 48 45 30
-0.771293 0.423258 1.551002 52 49 34
-0.775993 0.428187 1.569064 0 0 0
-0.776059 0.430599 1.577903 48 45 30
-0.773164 0.431386 1.580788 46 43 28
-0.766479 0.430055 1.575911 44 41 26
-0.759928 0.428786 1.571258 45 43 30
-0.756300 0.429160 1.572630 45 43 30
-0.753756 0.430157 1.576284 47 48 34
-0.748693 0.429720 1.574682 48 49 33
-0.744697 0.429894 1.575318 47 48 32
-0.738762 0.428944 1.571838 49 50 34
-0.735613 0.429609 1.574276 49 47 32
-0.728148 0.427748 1.567454 42 43 29
-0.723516 0.427538 1.566686 44 42 29
-0.718196 0.426917 1.564410 43 41 28
-0.712290 0.425938 1.560822 50 46 34
-0.708721 0.426353 1.562343 51 48 33
-0.704598 0.426438 1.562655 52 49 34
-0.701739 0.427294 1.565790 48 45 30
-0.696957 0.426982 1.564647 50 47 32
-0.692808 0.427056 1.564920 52 49 34
-0.689156 0.427440 1.566326 47 44 29
-0.684491 0.427196 1.565431 47 44 27
-0.680085 0.427111 1.565121 47 41 25
-0.674880 0.426521 1.562958 49 43 27
-0.670569 0.426491 1.562851 47 40 24
-0.666114 0.426370 1.562405 46 39 23
-0.661453 0.426114 1.561466 47 41 25
-0.655847 0.425241 1.558270 48 42 26
-0.651484 0.425169 1.558006 48 42 26
-0.647895 0.425604 1.559600 49 43 27
-0.644945 0.426468 1.562764 50 44 28
-0.640251 0.426182 1.561717 52 46 30
-0.635255 0.425689 1.559912 51 48 31
-0.630577 0.425406 1.558872 52 49 32
-0.626352 0.425425 1.558942 50 47 30
-0.621701 0.425153 1.557947 48 45 28
-0.617875 0.425446 1.559020 52 49 32
-0.613508 0.425368 1.558735 54 49 30
-0.610077 0.425942 1.560839 51 46 27
-0.605053 0.425404 1.558868 55 48 30
-0.601113 0.425627 1.559683 58 49 32
-0.596507 0.425377 1.558767 57 48 31
-0.591941 0.425153 1.557946 63 51 37
-0.588306 0.425598 1.559579 60 51 36
-0.584795 0.426141 1.561567 58 51 35
-0.580887 0.426401 1.562519 55 48 32
-0.575810 0.425799 1.560312 53 46 30
-0.571597 0.425832 1.560436 57 50 34
-0.568197 0.426476 1.562796 56 49 33
-0.564666 0.427031 1.564827 57 50 34
-0.560515 0.427122 1.565160 57 49 36
-0.555920 0.426873 1.564249 55 45 33
-0.550298 0.425826 1.560412 55 45 33
-0.547073 0.426631 1.563364 53 45 32
-0.543980 0.427553 1.566742 54 48 34
-0.540473 0.428162 1.568971 50 47 32
-0.534794 0.427045 1.564881 51 48 33
-0.529920 0.426560 1.563102 50 44 32
-0.527113 0.427743 1.567437 49 43 31
-0.524707 0.429274 1.573048 50 42 31
-0.523830 0.432091 1.583371 49 41 30
-0.521412 0.433674 1.589171 49 42 32
-0.518147 0.434572 1.592463 45 41 30
-0.513862 0.434624 1.592651 42 39 30
-0.512346 0.437038 1.601498 39 40 32
-0.507274 0.436433 1.599283 37 38 30
-0.504660 0.437952 1.604849 37 40 33
-0.492900 0.431491 1.581173 15 18 11
-0.485712 0.428954 1.571874 23 30 22
-0.478969 0.426768 1.563863 52 59 52
-0.476477 0.428364 1.569713 39 46 39
-0.476326 0.432113 1.583450 36 46 37
-0.476041 0.435807 1.596987 40 50 41
-0.472616 0.436669 1.600145 62 69 61
-0.464250 0.432939 1.586480 44 51 43
-0.461709 0.434622 1.592646 25 32 24
-0.458540 0.435741 1.596745 26 33 25
-0.457628 0.439046 1.608855 67 72 65
-0.269112 0.432414 1.584554 6 11 5
-0.115584 0.409336 1.499986 19 22 15
-0.113060 0.415098 1.521102 0 0 0
-0.112169 0.427520 1.566622 0 0 0
-0.108878 0.431421 1.580916 24 27 18
-0.104600 0.431571 1.581465 24 27 20
-0.100076 0.430672 1.578171 22 25 16
-0.095516 0.429532 1.573995 27 30 21
-0.090939 0.428205 1.569131 26 27 21
-0.086418 0.427021 1.564793 27 28 22
-0.081926 0.425870 1.560575 30 30 22
-0.077181 0.423199 1.550788 24 25 17
-0.072763 0.422118 1.546825 22 23 15
-0.068292 0.420580 1.541188 22 25 16
-0.063862 0.419106 1.535789 20 23 14
-0.059301 0.416504 1.526251 14 20 10
-0.054751 0.413594 1.515589 16 22 12
-0.050199 0.410191 1.503118 24 30 20
-0.045656 0.406265 1.488732 18 24 14
-0.041264 0.403052 1.476960 19 25 15
-0.036959 0.400078 1.466062 17 23 13
-0.032761 0.397681 1.457278 17 22 15
-0.028580 0.394857 1.446928 16 24 13
-0.024525 0.393134 1.440616 14 22 11
-0.020571 0.392701 1.439029 14 22 11
-0.016619 0.392101 1.436829 15 21 11
-0.012685 0.391715 1.435413 17 23 13
-0.008745 0.390668 1.431580 15 21 11
-0.004844 0.391129 1.433267 15 21 11
-0.000933 0.391185 1.433474 16 22 12
0.002982 0.391617 1.435056 14 19 12
0.006890 0.391190 1.433491 17 22 15
0.010802 0.391190 1.433492 19 24 17
0.014723 0.391454 1.434460 19 24 17
0.018626 0.391217 1.433591 16 23 15
0.022510 0.390733 1.431817 14 21 13
0.026382 0.390215 1.429917 16 21 14
0.030306 0.390499 1.430957 16 21 14
0.034179 0.390129 1.429602 14 19 12
0.038080 0.390133 1.429617 13 18 11
0.041941 0.389756 1.428238 15 20 13
0.045838 0.389752 1.428221 14 19 12
0.049691 0.389406 1.426953 15 20 13
0.053586 0.389416 1.426990 18 21 14
0.057623 0.390383 1.430535 19 22 15
0.061677 0.391338 1.434033 23 29 19
0.065870 0.393011 1.440165 21 26 19
0.070265 0.395629 1.449758 23 28 21
0.074719 0.398283 1.459483 18 23 16
0.078914 0.399357 1.463419 15 20 13
0.083066 0.400120 1.466214 16 21 14
0.087325 0.401307 1.470564 16 21 14
0.091741 0.403080 1.477062 14 19 12
0.096024 0.404141 1.480950 14 19 12
0.100272 0.404978 1.484017 14 21 14
0.104626 0.406159 1.488345 12 19 11
0.108816 0.406639 1.490101 10 20 11
0.112631 0.405734 1.486787 13 23 14
0.115833 0.402763 1.475898 40 51 43
0.118810 0.399233 1.462963 118 129 121
0.122020 0.396690 1.453645 94 107 98
0.125797 0.396094 1.451460 93 106 99
0.130237 0.397555 1.456814 95 108 101
0.134555 0.398571 1.460539 100 112 108
0.139239 0.400580 1.467902 97 108 104
0.143988 0.402660 1.475520 97 108 104
0.148768 0.404710 1.483036 102 113 109
0.153402 0.406265 1.488733 95 104 101
0.158209 0.408185 1.495767 100 109 106
0.162783 0.409424 1.500309 95 104 103
0.167471 0.410881 1.505648 101 110 109
0.172052 0.412012 1.509792 55 60 64
0.176755 0.413377 1.514795 28 33 37
0.181524 0.414829 1.520115 24 29 33
0.186203 0.416015 1.524461 25 30 34
0.190739 0.416837 1.527473 23 28 32
0.195196 0.417454 1.529733 23 28 32
0.200074 0.418928 1.535134 22 27 31
0.205031 0.420503 1.540908 22 27 31
0.209534 0.421103 1.543104 22 27 31
0.213944 0.421495 1.544540 23 28 32
0.218178 0.421533 1.544682 17 25 27
0.223062 0.422799 1.549322 18 27 26
0.227752 0.423660 1.552474 57 68 64
0.232576 0.424733 1.556406 118 131 124
0.237056 0.425150 1.557937 88 101 92
0.241470 0.425438 1.558992 80 93 84
0.245382 0.424845 1.556819 75 88 79
0.249259 0.424214 1.554504 76 89 80
0.253596 0.424372 1.555086 76 87 79
0.258622 0.425661 1.559808 78 89 81
0.263764 0.427094 1.565061 74 84 76
0.269045 0.428705 1.570962 78 89 81
0.273984 0.429728 1.574713 75 87 77
0.278454 0.429994 1.575687 72 84 74
0.282828 0.430108 1.576103 80 91 83
0.287165 0.430163 1.576304 74 85 79
0.292394 0.431531 1.581316 44 55 49
0.296999 0.431952 1.582862 18 27 24
0.301561 0.432300 1.584138 16 25 24
0.306220 0.432776 1.585880 19 25 25
0.311228 0.433724 1.589353 19 25 25
0.315403 0.433502 1.588541 20 26 26
0.319650 0.433383 1.588104 20 26 26
0.323974 0.433369 1.588055 19 23 24
0.328776 0.433989 1.590325 18 22 23
0.333795 0.434873 1.593566 21 26 29
0.338463 0.435284 1.595070 20 26 26
0.342590 0.434998 1.594022 21 30 29
0.346840 0.434873 1.593565 60 69 66
0.350973 0.434606 1.592587 126 136 128
0.355239 0.434508 1.592228 87 98 90
0.359826 0.434802 1.593303 81 92 84
0.364466 0.435150 1.594578 86 95 90
0.369556 0.436022 1.597775 81 90 85
0.373855 0.435951 1.597515 81 87 83
0.377806 0.435480 1.595791 84 90 86
0.381899 0.435182 1.594696 82 92 84
0.385660 0.434517 1.592260 80 90 82
0.390796 0.435398 1.595490 80 91 83
0.394966 0.435196 1.594748 75 85 77
0.400827 0.436840 1.600773 87 96 91
0.405203 0.436849 1.600807 76 85 82
0.409703 0.436990 1.601322 24 33 32
0.413184 0.436052 1.597886 35 40 43
0.417096 0.435583 1.596167 36 41 45
0.421648 0.435786 1.596912 34 39 43
0.426623 0.436419 1.599228 35 40 44
0.434612 0.440089 1.612680 34 39 43
0.438588 0.439663 1.611117 41 46 49
0.454641 0.451232 1.653512 0 0 0
-0.952659 0.375526 1.362468 144 150 140
-0.953881 0.377481 1.369560 150 156 146
-0.954601 0.379252 1.375985 149 155 145
-0.949974 0.378904 1.374723 151 157 147
-0.944988 0.378409 1.372929 145 148 139
-0.942275 0.378825 1.374436 112 115 106
-0.943107 0.380675 1.381147 155 158 149
-0.947309 0.383905 1.392866 152 155 146
-0.943508 0.383905 1.392866 156 162 152
-0.942987 0.385245 1.397729 153 161 150
-0.939406 0.385340 1.398075 149 157 146
-0.936491 0.385711 1.399420 149 157 146
-0.940307 0.388868 1.410876 151 161 150
-0.941909 0.391132 1.419089 147 157 146
-0.942015 0.392791 1.425108 148 156 145
-0.944131 0.395305 1.434230 151 159 148
-0.946711 0.398036 1.444136 151 159 148
-0.942770 0.398036 1.444136 148 156 145
-0.941448 0.399145 1.448163 150 158 147
-0.937564 0.399174 1.448268 149 157 146
-0.938533 0.401278 1.455901 148 156 145
-0.937754 0.402650 1.460877 147 155 144
-0.937671 0.404333 1.466984 146 154 143
-0.935324 0.405050 1.469587 147 155 144
-0.938820 0.408315 1.481431 144 152 141
-0.938664 0.410012 1.487589 145 153 142
-0.938421 0.411687 1.493665 144 152 141
-0.934346 0.411687 1.493665 142 150 137
-0.931318 0.412151 1.495348 138 146 131
-0.928679 0.412792 1.497673 137 144 128
-0.926688 0.413727 1.501068 133 137 120
-0.925899 0.415210 1.506448 130 134 117
-0.923823 0.416127 1.509774 134 138 121
-0.921383 0.416887 1.512531 129 136 118
-0.917056 0.416796 1.512202 124 133 116
-0.916210 0.418294 1.517636 117 124 108
-0.912046 0.418283 1.517598 30 33 16
-0.909552 0.419042 1.520351 55 54 36
-0.905877 0.419262 1.521147 59 52 36
-0.904471 0.420538 1.525777 62 50 36
-0.903206 0.421892 1.530689 59 45 32
-0.899029 0.421892 1.530689 67 51 36
-0.894425 0.421690 1.529959 66 50 35
-0.889301 0.421241 1.528327 64 48 33
-0.882531 0.420004 1.523839 65 49 36
-0.876679 0.419193 1.520900 61 45 32
-0.872709 0.419280 1.521214 63 47 34
-0.869610 0.419788 1.523056 63 49 36
-0.868049 0.421047 1.527624 59 47 33
-0.864540 0.421368 1.528790 60 48 34
-0.860654 0.421508 1.529297 60 51 36
-0.854987 0.420773 1.526630 58 51 35
-0.851368 0.421043 1.527611 63 56 40
-0.849076 0.421976 1.530994 63 57 41
-0.848760 0.423905 1.537992 58 52 36
-0.846812 0.425033 1.542088 54 48 32
-0.843867 0.425670 1.544398 55 52 35
-0.844302 0.428027 1.552951 58 55 38
-0.846352 0.431231 1.564574 61 58 41
-0.845725 0.433096 1.571342 62 59 42
-0.841518 0.433138 1.571492 57 56 36
-0.837230 0.433138 1.571492 55 57 36
-0.833037 0.433187 1.571672 41 42 24
-0.833963 0.435913 1.581561 38 39 21
-0.832470 0.437397 1.586944 36 39 20
-0.824992 0.435734 1.580912 40 43 26
-0.823344 0.437149 1.586046 51 54 37
-0.823480 0.439532 1.594692 50 53 36
-0.815925 0.437813 1.588454 49 53 38
-0.808572 0.436185 1.582547 48 52 38
-0.800801 0.434312 1.575753 62 66 52
-0.794988 0.433487 1.572760 54 57 46
-0.790872 0.433584 1.573110 54 57 46
-0.791235 0.436150 1.582420 41 47 33
-0.785004 0.435089 1.578573 52 58 44
-0.738062 0.440495 1.598184 42 46 32
-0.732988 0.440067 1.596631 46 48 35
-0.726715 0.438909 1.592433 50 52 39
-0.716955 0.438256 1.590060 43 44 30
-0.699029 0.435199 1.578971 48 49 33
-0.689890 0.434871 1.577779 46 44 29
-0.687115 0.435841 1.581301 45 43 28
-0.681133 0.434777 1.577441 43 40 25
-0.675024 0.433618 1.573234 46 40 24
-0.669670 0.432932 1.570746 45 39 23
-0.665447 0.432973 1.570895 43 40 23
-0.659940 0.432174 1.567995 45 42 25
-0.655073 0.431786 1.566588 49 46 31
-0.650531 0.431609 1.565946 43 40 25
-0.647723 0.432587 1.569495 48 45 30
-0.642326 0.431838 1.566777 48 45 30
-0.637854 0.431706 1.566296 55 52 37
-0.632541 0.430997 1.563727 49 46 29
-0.628657 0.431260 1.564680 49 46 29
-0.623931 0.430945 1.563537 48 45 28
-0.620385 0.431446 1.565354 50 47 30
-0.616000 0.431367 1.565067 48 45 28
-0.611014 0.430862 1.563236 47 44 27
-0.606107 0.430407 1.561583 47 41 25
-0.602083 0.430576 1.562199 50 44 28
-0.599077 0.431482 1.565484 53 47 31
